# .PCD v0.7 - Point Cloud Data file format
VERSION 0.7
FIELDS x y z
SIZE 4 4 4
TYPE F F F
COUNT 1 1 1
WIDTH 157
HEIGHT 1
VIEWPOINT 0 0 0 1 0 0 0
POINTS 157
DATA ascii
1.812346 -6.6202798 1.8391682
1.7917436 -6.635891 1.8417563
1.7670784 -6.6365042 1.8402034
1.7419387 -6.6351581 1.8381329
1.7207038 -6.6486788 1.8402034
1.7003499 -6.6658764 1.8433093
1.6782354 -6.6714787 1.8433093
1.6544725 -6.6754208 1.8427917
1.6325361 -6.6867852 1.8443446
1.6091846 -6.6924434 1.8443446
1.5893743 -6.7130589 1.8484857
1.5685633 -6.7298541 1.8515915
1.5429016 -6.7258744 1.8490034
1.5198405 -6.7331033 1.849521
1.498004 -6.7459106 1.8515915
1.4752707 -6.7548738 1.8526268
1.4549283 -6.7750926 1.8567679
1.429673 -6.7725692 1.8546973
1.4056317 -6.7756267 1.8541797
1.3846731 -6.7937422 1.8578032
1.3640825 -6.801847 1.8588384
1.3429439 -6.8198361 1.862462
1.3194965 -6.8263788 1.8629795
1.2953006 -6.8290448 1.862462
1.2728682 -6.8411217 1.8645325
1.2517542 -6.8607268 1.8686736
1.2281381 -6.8669558 1.8691912
1.2034934 -6.8673959 1.868156
1.1804954 -6.8772669 1.8697089
1.1577625 -6.8889661 1.8717794
1.1367944 -6.9042048 1.8748853
1.1133015 -6.9119453 1.8759204
1.0885673 -6.9119725 1.8748853
1.0650208 -6.919549 1.8759204
1.0425836 -6.9346867 1.8790263
1.0203342 -6.9516635 1.8826498
0.99633682 -6.9570951 1.8831675
0.97231293 -6.9624438 1.8836851
0.94800329 -6.9657955 1.8836851
0.92622048 -6.9882131 1.8888614
0.90206838 -6.99332 1.889379
0.87813318 -7.0002594 1.8904144
0.85439348 -7.0090356 1.8919673
0.83060318 -7.0177307 1.8935202
0.80821031 -7.0281229 1.8955908
0.78559852 -7.0481811 1.9002496
0.76140535 -7.0547214 1.9012847
0.73697555 -7.059258 1.9018024
0.71233034 -7.0617876 1.9018024
0.68879855 -7.0757675 1.9049082
0.66626066 -7.1012096 1.9111199
0.64164227 -7.1054158 1.9116375
0.61683565 -7.1076121 1.9116375
0.5921827 -7.1116476 1.9121553
0.5679689 -7.1213741 1.9142257
0.54457569 -7.1425762 1.9194021
0.52187014 -7.1578298 1.9230256
0.49674833 -7.1576805 1.922508
0.47277632 -7.1747923 1.926649
0.44833001 -7.1860394 1.9292372
0.42415246 -7.2029886 1.9333783
0.39953986 -7.2140703 1.9359666
0.37455648 -7.2192793 1.9370018
0.34954071 -7.224402 1.9380372
0.32484025 -7.2371573 1.9411429
0.30021563 -7.2536888 1.945284
0.27503893 -7.2585535 1.9463193
0.2499665 -7.2671924 1.9483899
0.22483708 -7.275744 1.9504604
0.19964926 -7.2842088 1.9525309
0.17595869 -7.3041439 1.9577073
0.15197675 -7.3162761 1.9608132
0.12637118 -7.3128991 1.959778
0.09972401 -7.324903 1.9628838
0.074350938 -7.3445239 1.9680601
0.050047528 -7.352457 1.9701307
0.024420591 -7.3641782 1.9732366
-0.0012880352 -7.3835373 1.9784129
-0.028336216 -7.3796191 1.9773775
-0.054180015 -7.3910661 1.9804834
-0.0789776 -7.4178901 1.9877304
-0.10508818 -7.433023 1.9918715
-0.13096574 -7.4287472 1.9908361
-0.15697791 -7.4321079 1.9918715
-0.18455213 -7.4450016 1.995495
-0.21092054 -7.4578295 1.9991184
-0.23626088 -7.4763975 2.0042949
-0.26269594 -7.4851804 2.0068829
-0.28934419 -7.4977312 2.0105064
-0.31583866 -7.5043964 2.0125771
-0.34369487 -7.5109072 2.0146475
-0.37086138 -7.5289569 2.019824
-0.3966372 -7.5431194 2.0239649
-0.42208055 -7.5494781 2.0260355
-0.44934827 -7.563386 2.0301766
-0.47720158 -7.5849085 2.0363884
-0.50628227 -7.6023836 2.0415647
-0.53254557 -7.5967159 2.0405295
-0.56076282 -7.6179304 2.046741
-0.58794445 -7.6236315 2.0488117
-0.61517358 -7.6292348 2.0508821
-0.64309686 -7.6424413 2.0550234
-0.66944712 -7.6518135 2.0581291
-0.69551623 -7.6572475 2.0601997
-0.72405565 -7.674006 2.065376
-0.75309598 -7.6945043 2.0715878
-0.78363556 -7.714756 2.0777996
-0.81136906 -7.7196579 2.07987
-0.83821315 -7.7284489 2.0829759
-0.86776567 -7.7485137 2.0891874
-0.89569384 -7.7531133 2.0912578
-0.92458022 -7.7652869 2.0953991
-0.95356059 -7.7773523 2.0995402
-0.98166937 -7.7816434 2.1016109
-1.0108153 -7.7934952 2.105752
-1.0415851 -7.8167281 2.1129987
-1.069593 -7.8285432 2.1171398
-1.0974488 -7.8285885 2.118175
-1.1258696 -7.8323588 2.1202457
-1.1577066 -7.8589602 2.1285279
-1.1885914 -7.8777943 2.1347394
-1.2196215 -7.8965077 2.1409512
-1.2477803 -7.8960185 2.1419864
-1.2784183 -7.9106865 2.1471629
-1.3071595 -7.9216518 2.151304
-1.3380154 -7.9360909 2.1564806
-1.3689867 -7.9504099 2.1616566
-1.3994075 -7.9608045 2.1657977
-1.4292059 -7.9751363 2.1709743
-1.4591203 -7.9815001 2.1740801
-1.4905126 -7.9953499 2.1792564
-1.5216579 -8.0071802 2.1839154
-1.5462173 -7.9768929 2.177186
-1.572929 -7.9657617 2.175633
-1.6003436 -7.9583282 2.1751153
-1.6319895 -7.9716206 2.1802919
-1.6584147 -7.9661646 2.1802919
-1.6824224 -7.9492803 2.177186
-1.7087743 -7.9436574 2.177186
-1.7351063 -7.9379478 2.177186
-1.7643138 -7.9255695 2.175633
-1.7958061 -7.9363217 2.1802919
-1.8203828 -7.9227915 2.1782212
-1.8497853 -7.923914 2.1802919
-1.8774331 -7.9174089 2.1802919
-1.9041539 -7.9070501 2.1792564
-1.9326611 -7.904109 2.1802919
-1.9574466 -7.8860645 2.177186
-1.9821308 -7.8679438 2.1740801
-2.01054 -7.8647194 2.1751153
-2.0389509 -7.8613935 2.1761506
-2.0673623 -7.8579655 2.177186
-2.090795 -7.8357692 2.1730449
-2.1171253 -7.8246932 2.1720095
-2.1454482 -7.820982 2.1730449
-2.1773937 -7.8301959 2.1777036
-2.2031398 -7.8169684 2.1761506
