# .PCD v0.7 - Point Cloud Data file format
VERSION 0.7
FIELDS x y z
SIZE 4 4 4
TYPE F F F
COUNT 1 1 1
WIDTH 298
HEIGHT 1
VIEWPOINT 0 0 0 1 0 0 0
POINTS 298
DATA ascii
-0.46826881 0.5803318 -0.1998083
-0.47348762 0.59100884 -0.20291413
-0.46180063 0.58056301 -0.19877303
-0.45139018 0.57155889 -0.19514956
-0.44820014 0.57161093 -0.19463193
-0.44501552 0.57164747 -0.1941143
-0.44656166 0.57778281 -0.19566721
-0.44571799 0.58087087 -0.19618484
-0.43783411 0.57473963 -0.19359665
-0.43359476 0.57310706 -0.19256137
-0.43623248 0.58079571 -0.19463193
-0.43997627 0.59005851 -0.19722012
-0.43791404 0.59159064 -0.19722012
-0.42898273 0.58377516 -0.1941143
-0.42580372 0.58370847 -0.19359665
-0.42489651 0.58675605 -0.1941143
-0.42848384 0.59607869 -0.19670248
-0.42415643 0.59442556 -0.19566721
-0.42207873 0.59590256 -0.19566721
-0.41454357 0.58939815 -0.19307902
-0.41580108 0.59559375 -0.19463193
-0.41492441 0.59855694 -0.19514956
-0.41272765 0.60007375 -0.19514956
-0.40834782 0.59839094 -0.1941143
-0.40842307 0.60301185 -0.19514956
-0.40749931 0.60596591 -0.19566721
-0.40323687 0.60417086 -0.19463193
-0.40549943 0.6119464 -0.19670248
-0.39794794 0.60535699 -0.1941143
-0.39266592 0.60188842 -0.19256137
-0.38951251 0.60163385 -0.19204374
-0.39263102 0.61111647 -0.19463193
-0.39049557 0.6124832 -0.19463193
-0.38319105 0.60567969 -0.19204374
-0.37902004 0.60374141 -0.19100846
-0.38008115 0.60991353 -0.19256137
-0.37896568 0.61287975 -0.19307902
-0.37985489 0.61913872 -0.19463193
-0.3716642 0.61055994 -0.1915261
-0.36853212 0.61019987 -0.19100846
-0.37235773 0.62142527 -0.1941143
-0.3683199 0.61933595 -0.19307902
-0.36811918 0.62394547 -0.1941143
-0.36105961 0.61689037 -0.1915261
-0.35793418 0.61647624 -0.19100846
-0.35770828 0.62107009 -0.19204374
-0.35841328 0.62734705 -0.19359665
-0.35431644 0.62523276 -0.19256137
-0.35213163 0.62646586 -0.19256137
-0.34534737 0.61919415 -0.18997319
-0.3477495 0.62890893 -0.19256137
-0.34276551 0.62503731 -0.19100846
-0.34427342 0.63301843 -0.19307902
-0.33850306 0.62735599 -0.19100846
-0.33266529 0.62172043 -0.1889379
-0.33320957 0.62799734 -0.19049083
-0.33461326 0.63599539 -0.19256137
-0.33507189 0.64229786 -0.1941143
-0.32484007 0.62802041 -0.18945555
-0.32451922 0.63253188 -0.19049083
-0.32055774 0.63021696 -0.18945555
-0.32270488 0.63995689 -0.19204374
-0.32219675 0.6445353 -0.19307902
-0.3139405 0.63353932 -0.18945555
-0.30746865 0.62596136 -0.18686737
-0.31289276 0.64266306 -0.1915261
-0.30980784 0.64201164 -0.19100846
-0.31089908 0.65006024 -0.19307902
-0.30283594 0.63892186 -0.18945555
-0.29742914 0.63292879 -0.18738499
-0.30011097 0.64447087 -0.19049083
-0.30028784 0.6507768 -0.19204374
-0.29962105 0.65533483 -0.19307902
-0.29175156 0.64405882 -0.18945555
-0.28950143 0.64507335 -0.18945555
-0.29128653 0.65485525 -0.19204374
-0.28899869 0.65586811 -0.19204374
-0.28914192 0.66213393 -0.19359665
-0.28058007 0.64900345 -0.18945555
-0.27907315 0.65175486 -0.18997319
-0.27819046 0.65633065 -0.19100846
-0.27601227 0.65724963 -0.19100846
-0.2729747 0.65642524 -0.19049083
-0.26921076 0.65380138 -0.18945555
-0.26619741 0.65294826 -0.1889379
-0.26620096 0.65920132 -0.19049083
-0.2624639 0.65653896 -0.18945555
-0.26514661 0.67002523 -0.19307902
-0.25787398 0.6583553 -0.18945555
-0.25417787 0.65564889 -0.18842028
-0.25534782 0.66555041 -0.19100846
-0.25233719 0.66463172 -0.19049083
-0.2554509 0.67997593 -0.19463193
-0.24903716 0.66999871 -0.1915261
-0.24403009 0.66361135 -0.18945555
-0.24248865 0.66623229 -0.18997319
-0.24462385 0.67984086 -0.19359665
-0.24224941 0.68069053 -0.19359665
-0.2360235 0.67059839 -0.19049083
-0.23506919 0.67502612 -0.1915261
-0.23271127 0.67584258 -0.1915261
-0.23159604 0.68030834 -0.19256137
-0.23033257 0.68481475 -0.19359665
-0.22550298 0.67828178 -0.1915261
-0.2206043 0.67176217 -0.18945555
-0.22088081 0.67980099 -0.1915261
-0.21968749 0.68424672 -0.19256137
-0.21729782 0.68500936 -0.19256137
-0.21386911 0.68203938 -0.1915261
-0.21046223 0.6790545 -0.19049083
-0.20966753 0.68536323 -0.19204374
-0.20839141 0.68978947 -0.19307902
-0.20763884 0.6960665 -0.19463193
-0.20084155 0.68196183 -0.19049083
-0.1963028 0.67523849 -0.18842028
-0.1971416 0.68706107 -0.1915261
-0.19684725 0.69518018 -0.19359665
-0.19454101 0.69582909 -0.19359665
-0.18993582 0.68908787 -0.1915261
-0.18803629 0.69161087 -0.19204374
-0.18562111 0.69226301 -0.19204374
-0.18480667 0.69847751 -0.19359665
-0.18224521 0.69915026 -0.19359665
-0.17836148 0.69416887 -0.19204374
-0.17404053 0.68729621 -0.18997319
-0.17351092 0.69539714 -0.19204374
-0.17212702 0.69972056 -0.19307902
-0.17162648 0.70779729 -0.19514956
-0.16658448 0.69708884 -0.19204374
-0.16314429 0.69393355 -0.19100846
-0.16234054 0.70205563 -0.19307902
-0.16190773 0.7120648 -0.19566721
-0.16123402 0.72013849 -0.19773777
-0.15634991 0.70934981 -0.19463193
-0.15129568 0.69858956 -0.1915261
-0.15127027 0.71045035 -0.19463193
-0.15037209 0.71853769 -0.19670248
-0.14864105 0.72284275 -0.19773777
-0.14446214 0.71580797 -0.19566721
-0.14046019 0.70872796 -0.19359665
-0.13810968 0.70918977 -0.19359665
-0.13720925 0.71723354 -0.19566721
-0.13529107 0.7215293 -0.19670248
-0.13137452 0.71439707 -0.19463193
-0.12819429 0.71104896 -0.19359665
-0.1290729 0.73051584 -0.19877303
-0.1259899 0.72713298 -0.19773777
-0.1248721 0.735165 -0.1998083
-0.11977011 0.72035092 -0.19566721
-0.11725505 0.72076458 -0.19566721
-0.11534528 0.7249853 -0.19670248
-0.11340747 0.72920132 -0.19773777
-0.11202275 0.73723239 -0.1998083
-0.10705368 0.72235024 -0.19566721
-0.10453205 0.72271943 -0.19566721
-0.1025482 0.72690582 -0.19670248
-0.10106308 0.7349146 -0.19877303
-0.098625258 0.73524576 -0.19877303
-0.095057718 0.72792321 -0.19670248
-0.093490221 0.73591632 -0.19877303
-0.091737531 0.74392343 -0.20084359
-0.088681221 0.74040282 -0.1998083
-0.086542085 0.7445457 -0.20084359
-0.082772322 0.7333107 -0.19773777
-0.081262492 0.74319708 -0.20032595
-0.078464277 0.74155515 -0.1998083
-0.076071657 0.74374634 -0.20032595
-0.074234627 0.75169742 -0.20239651
-0.070199147 0.73850209 -0.19877303
-0.068149321 0.74451411 -0.20032595
-0.065549865 0.74474746 -0.20032595
-0.063405983 0.74881071 -0.20136122
-0.061417017 0.75672942 -0.20343177
-0.058475859 0.75308722 -0.20239651
-0.055561233 0.74943358 -0.20136122
-0.053621631 0.75732172 -0.20343177
-0.051236987 0.76135933 -0.20446704
-0.048936885 0.76925379 -0.2065376
-0.045555677 0.75784969 -0.20343177
-0.043151621 0.75992543 -0.20394942
-0.040293306 0.75621319 -0.20291413
-0.037749592 0.75827861 -0.20343177
-0.035638191 0.76998448 -0.2065376
-0.032620057 0.76238388 -0.20446704
-0.029786786 0.75476652 -0.20239651
-0.027772337 0.76837528 -0.20601997
-0.025405031 0.77812165 -0.20860817
-0.022351088 0.76661938 -0.20550233
-0.019575631 0.76283032 -0.20446704
-0.01695608 0.76482534 -0.20498469
-0.014430337 0.7726059 -0.20705524
-0.011808651 0.76878631 -0.20601997
-0.0092394417 0.77848142 -0.20860817
-0.0064088544 0.7649864 -0.20498469
-0.0037386755 0.76500416 -0.20498469
-0.0010792434 0.77273995 -0.20705524
0.0016183348 0.77273893 -0.20705524
0.0043374724 0.77659225 -0.20809051
0.0070130304 0.77270883 -0.20705524
0.0095647946 0.76108944 -0.20394942
0.012344982 0.76877791 -0.20601997
0.015028647 0.76873016 -0.20601997
0.017667625 0.76674163 -0.20550233
0.019751821 0.74929816 -0.20084359
0.022251787 0.7453627 -0.1998083
0.024724875 0.74141884 -0.19877303
0.027668238 0.75098085 -0.20136122
0.029822487 0.73929793 -0.19825539
0.031725962 0.72374934 -0.1941143
0.033886962 0.71591544 -0.19204374
0.036189806 0.71193409 -0.19100846
0.038988635 0.71759045 -0.19256137
0.041604988 0.71937859 -0.19307902
0.043406043 0.7076596 -0.18997319
0.04487614 0.69208139 -0.18583208
0.04716013 0.68999308 -0.18531445
0.049706686 0.69175124 -0.18583208
0.051565658 0.68580335 -0.18427916
0.05365628 0.68176734 -0.18324389
0.056035623 0.68157589 -0.18324389
0.057424534 0.6698274 -0.18013807
0.060105637 0.67347127 -0.18117334
0.061563756 0.66363949 -0.17858516
0.063324608 0.6576516 -0.17703223
0.065427847 0.65550429 -0.1765146
0.067715764 0.65527189 -0.1765146
0.070618704 0.6607942 -0.17806751
0.072288461 0.65478319 -0.1765146
0.072605588 0.63725191 -0.17185585
0.075505607 0.64275056 -0.17340876
0.07682059 0.6348117 -0.17133822
0.078925155 0.63455343 -0.17133822
0.082610659 0.64577144 -0.17444403
0.08349409 0.63591689 -0.17185585
0.085971683 0.63753611 -0.17237349
0.089256167 0.64488649 -0.17444403
0.091347195 0.6426425 -0.17392641
0.094425663 0.64805466 -0.17547932
0.095831148 0.64198917 -0.17392641
0.097487934 0.63783127 -0.17289113
0.10031075 0.64130449 -0.17392641
0.10376968 0.64858067 -0.17599694
0.10603318 0.64821446 -0.17599694
0.10765809 0.64402968 -0.17496169
0.10881854 0.63795602 -0.17340876
0.11126481 0.63949502 -0.17392641
0.1156365 0.65049505 -0.17703223
0.11802007 0.65006685 -0.17703223
0.11864147 0.64013237 -0.17444403
0.12315793 0.65304524 -0.17806751
0.12616618 0.65640557 -0.17910279
0.12760052 0.65219176 -0.17806751
0.13289626 0.66689926 -0.18220863
0.13291858 0.65507162 -0.17910279
0.13610069 0.65836382 -0.18013807
0.13760276 0.65410376 -0.17910279
0.14150222 0.66117579 -0.18117334
0.14627476 0.67200363 -0.18427916
0.14611463 0.66017175 -0.18117334
0.1462981 0.65023404 -0.17858516
0.14942837 0.65348577 -0.17962041
0.15508942 0.66804117 -0.18376154
0.15564649 0.65997469 -0.18169098
0.15704946 0.65566987 -0.1806557
0.1602502 0.65887201 -0.18169098
0.16335963 0.66208822 -0.18272625
0.16578537 0.66148496 -0.18272625
0.17095035 0.67213577 -0.18583208
0.17233025 0.66779375 -0.18479681
0.17454365 0.66721869 -0.18479681
0.17488971 0.65913635 -0.18272625
0.18070333 0.67158037 -0.18634972
0.1835548 0.67280924 -0.18686737
0.1859024 0.67216438 -0.18686737
0.18511896 0.66035044 -0.18376154
0.19205625 0.6764586 -0.18842028
0.19334801 0.67207104 -0.18738499
0.19893651 0.68252003 -0.19049083
0.19912934 0.6744104 -0.18842028
0.20037541 0.67000937 -0.18738499
0.2055127 0.67855048 -0.18997319
0.20957918 0.68336982 -0.1915261
0.21425499 0.69001389 -0.19359665
0.21364723 0.68008435 -0.19100846
0.21719022 0.6830166 -0.19204374
0.22075693 0.68593216 -0.19307902
0.22554316 0.69250482 -0.19514956
0.2267496 0.68804383 -0.1941143
0.22792798 0.68358272 -0.19307902
0.23031262 0.68278301 -0.19307902
0.23643748 0.692945 -0.19618484
0.24200617 0.7012462 -0.19877303
0.24763536 0.70951706 -0.20136122
0.24496704 0.69407451 -0.19722012
0.24868679 0.69685417 -0.19825539
0.25242928 0.69961613 -0.19929068
0.24957402 0.68421155 -0.19514956
0.25773144 0.69973934 -0.1998083
