# .PCD v0.7 - Point Cloud Data file format
VERSION 0.7
FIELDS x y z
SIZE 4 4 4
TYPE F F F
COUNT 1 1 1
WIDTH 104
HEIGHT 1
VIEWPOINT 0 0 0 1 0 0 0
POINTS 104
DATA ascii
0.52751887 -3.3686647 -0.91363126
0.51867926 -3.3895819 -0.91880763
0.50684375 -3.391372 -0.91880763
0.50169587 -3.4389994 -0.93123102
0.4858776 -3.4139535 -0.92398405
0.47455409 -3.4155457 -0.92398405
0.46685815 -3.4439015 -0.93123102
0.4471626 -3.3919613 -0.91673708
0.44220263 -3.4471543 -0.93123102
0.42908713 -3.4449174 -0.93019569
0.40870473 -3.3773513 -0.91156071
0.40773174 -3.4708531 -0.93640739
0.39096296 -3.4261208 -0.92398405
0.38409728 -3.4735479 -0.93640739
0.37196952 -3.4748676 -0.93640739
0.35307488 -3.4108112 -0.91880763
0.34308875 -3.4312453 -0.92398405
0.33110929 -3.4324222 -0.92398405
0.32341695 -3.4797223 -0.93640739
0.30773821 -3.4345963 -0.92398405
0.29800707 -3.454845 -0.92916042
0.28534234 -3.455914 -0.92916042
0.27237004 -3.4530849 -0.92812514
0.26000205 -3.4579127 -0.92916042
0.25113261 -3.4779375 -0.93433678
0.23468526 -3.4248691 -0.9198429
0.2243809 -3.4604068 -0.92916042
0.21409093 -3.4804139 -0.93433678
0.201426 -3.4618187 -0.92916042
0.18934108 -3.4625008 -0.92916042
0.17863551 -3.4901512 -0.93640739
0.16364239 -3.4444704 -0.92398405
0.15263712 -3.4681802 -0.93019569
0.14052989 -3.4686918 -0.93019569
0.12842093 -3.4691613 -0.93019569
0.11553375 -3.4464195 -0.92398405
0.10489474 -3.4931452 -0.93640739
0.092700653 -3.4934902 -0.93640739
0.081115171 -3.4937782 -0.93640739
0.068538457 -3.4747255 -0.93123102
0.058156282 -3.5444708 -0.94986594
0.043934051 -3.4480755 -0.92398405
0.032147836 -3.4752526 -0.93123102
0.020195089 -3.5062525 -0.93951315
0.0079294629 -3.4947107 -0.93640739
-0.0042458987 -3.4753988 -0.93123102
-0.015858093 -3.4946837 -0.93640739
-0.028057232 -3.494607 -0.93640739
-0.039988164 -3.471307 -0.93019569
-0.053062927 -3.4943168 -0.93640739
-0.066162027 -3.5423985 -0.94934833
-0.076985165 -3.4726162 -0.93071336
-0.088413067 -3.4452891 -0.92346638
-0.10325351 -3.5415113 -0.94934833
-0.13971581 -3.5402603 -0.94934833
-0.14792693 -3.4432473 -0.92346638
-0.15994529 -3.4427099 -0.92346638
-0.17061225 -3.4151185 -0.91621947
-0.18521313 -3.4646587 -0.92967808
-0.19752575 -3.4678485 -0.93071336
-0.2096297 -3.4671381 -0.93071336
-0.22617021 -3.53579 -0.94934833
-0.23513025 -3.4848645 -0.93588972
-0.24729297 -3.4840226 -0.93588972
-0.26271069 -3.5351999 -0.94986594
-0.27504891 -3.5342615 -0.94986594
-0.28174657 -3.4639621 -0.93123102
-0.30762279 -3.4811542 -0.93640739
-0.32436848 -3.5300765 -0.94986594
-0.33668843 -3.5289228 -0.94986594
-0.34900516 -3.5277259 -0.94986594
-0.35619727 -3.4765198 -0.93640739
-0.36629403 -3.4560444 -0.93123102
-0.37481311 -3.4279251 -0.92398405
-0.39761066 -3.5225787 -0.94986594
-0.4092899 -3.5212409 -0.94986594
-0.4215785 -3.5197909 -0.94986594
-0.42474869 -3.4493484 -0.93123102
-0.446141 -3.5167618 -0.94986594
-0.45902765 -3.5151031 -0.94986594
-0.47129497 -3.5134792 -0.94986594
-0.49581218 -3.5101035 -0.94986594
-0.50806135 -3.5083513 -0.94986594
-0.52030444 -3.5065565 -0.94986594
-0.51803124 -3.4092226 -0.92398405
-0.55638504 -3.5010128 -0.94986594
-0.56860262 -3.4990494 -0.94986594
-0.57258368 -3.4474938 -0.93640739
-0.59301627 -3.4949944 -0.94986594
-0.60521263 -3.4929032 -0.94986594
-0.60528904 -3.4222858 -0.93123102
-0.62897402 -3.4887028 -0.94986594
-0.65392208 -3.4841127 -0.94986594
-0.65301216 -3.4135013 -0.93123102
-0.67822987 -3.4794626 -0.94986594
-0.67682701 -3.408859 -0.93123102
-0.71402276 -3.4722941 -0.94986594
-0.72613907 -3.4697807 -0.94986594
-0.71813047 -3.37275 -0.92398405
-0.74973994 -3.4647577 -0.94986594
-0.77391022 -3.459439 -0.94986594
-0.79804242 -3.4539518 -0.94986594
-0.89357251 -3.4304786 -0.94986594
-0.90554178 -3.4273386 -0.94986594
