# .PCD v0.7 - Point Cloud Data file format
VERSION 0.7
FIELDS x y z
SIZE 4 4 4
TYPE F F F
COUNT 1 1 1
WIDTH 206
HEIGHT 1
VIEWPOINT 0 0 0 1 0 0 0
POINTS 206
DATA ascii
0.87544441 -0.57440358 -0.28055987
0.86215359 -0.56999797 -0.27693638
0.86186653 -0.5739246 -0.27745402
0.86456931 -0.58030963 -0.27900696
0.86733913 -0.58657068 -0.28055987
0.86528635 -0.58959466 -0.28055987
0.85058355 -0.58371598 -0.27641875
0.84377372 -0.58338559 -0.27486584
0.84648776 -0.58963996 -0.27641875
0.8460058 -0.59370077 -0.27693638
0.84708297 -0.59888071 -0.27797166
0.83082551 -0.59174734 -0.2733129
0.82728887 -0.5933733 -0.27279529
0.82834435 -0.5985204 -0.27383056
0.82625014 -0.60140818 -0.27383056
0.81791395 -0.59971935 -0.27176002
0.81270772 -0.60027528 -0.27072471
0.80440778 -0.59849578 -0.2686542
0.80076778 -0.60014141 -0.26813653
0.80791909 -0.60991681 -0.27124238
0.80270952 -0.61039454 -0.27020708
0.79443932 -0.60849404 -0.26813653
0.79394692 -0.61230487 -0.2686542
0.79180473 -0.61507255 -0.2686542
0.78063059 -0.61055392 -0.26554835
0.7891174 -0.62164342 -0.26917183
0.7718091 -0.61238664 -0.26399544
0.76664841 -0.61266482 -0.26296017
0.78858411 -0.634718 -0.27124238
0.77585882 -0.62895095 -0.26761889
0.76179564 -0.62174821 -0.2634778
0.75801957 -0.6233092 -0.26296017
0.74977928 -0.62115353 -0.26088959
0.74612314 -0.62252939 -0.26037198
0.74553388 -0.62624276 -0.26088959
0.74776804 -0.63258439 -0.26244253
0.73820269 -0.62892652 -0.25985435
0.73013836 -0.62646765 -0.25778377
0.73087049 -0.63153857 -0.25881904
0.7286616 -0.63408595 -0.25881904
0.72800809 -0.63777184 -0.25933671
0.72132027 -0.63660091 -0.25778377
0.71187395 -0.632698 -0.25519559
0.71397942 -0.63904428 -0.2567485
0.71185637 -0.64140838 -0.2567485
0.71247452 -0.64648569 -0.25778377
0.70165664 -0.64114988 -0.25467795
0.69657117 -0.64097887 -0.25364268
0.69585907 -0.64459813 -0.25416031
0.69077951 -0.64438772 -0.25312504
0.69838208 -0.65605384 -0.2567485
0.68474752 -0.64798641 -0.25260741
0.6810829 -0.64903992 -0.25208977
0.68020707 -0.65275109 -0.25260741
0.67803872 -0.65500313 -0.25260741
0.68267184 -0.66410118 -0.25519559
0.66654938 -0.65296125 -0.25001919
0.66415161 -0.65539992 -0.25001919
0.66185987 -0.65771425 -0.25001919
0.66502208 -0.66548657 -0.25208977
0.66553372 -0.67043024 -0.25312504
0.65233964 -0.66174322 -0.24898393
0.65002573 -0.66401625 -0.24898393
0.65039712 -0.66905159 -0.25001919
0.6480577 -0.67131782 -0.25001919
0.64838415 -0.67636502 -0.25105447
0.64069134 -0.67302728 -0.24898393
0.6330297 -0.66964418 -0.24691339
0.63333273 -0.67466676 -0.24794866
0.63887745 -0.68535197 -0.25105447
0.63385659 -0.68474245 -0.25001919
0.62492561 -0.67983961 -0.24743101
0.62006247 -0.67905498 -0.24639574
0.6202836 -0.68407756 -0.24743101
0.62176996 -0.69054556 -0.24898393
0.62064338 -0.69415188 -0.24950157
0.61565137 -0.69342482 -0.2484663
0.61833733 -0.70136601 -0.25053686
0.62097532 -0.70933443 -0.25260741
0.62483251 -0.71878755 -0.25519559
0.63620508 -0.73705071 -0.26088959
0.63614291 -0.74220061 -0.26192489
0.63868743 -0.75018996 -0.26399544
0.63842744 -0.75547683 -0.26503071
0.64820409 -0.77249956 -0.27020708
0.65292311 -0.78366274 -0.2733129
0.65524763 -0.7917769 -0.27538347
0.65493274 -0.79704446 -0.27641875
0.67168647 -0.82327551 -0.28470096
0.67124069 -0.82861739 -0.28573623
0.67817742 -0.84287995 -0.28987733
0.68246579 -0.85429829 -0.29298317
0.68428153 -0.86272949 -0.29505375
0.69067436 -0.87737536 -0.29919481
0.6971246 -0.89195776 -0.30333593
0.70821857 -0.91270083 -0.3095476
0.71328115 -0.92588013 -0.31317106
0.71708661 -0.93757123 -0.31627688
0.73016524 -0.96160847 -0.32352382
0.73395139 -0.9732793 -0.32662967
0.74230027 -0.9911707 -0.33180603
0.74575162 -1.0030577 -0.33491185
0.74683458 -1.0118721 -0.3369824
0.75471562 -1.0300561 -0.34215879
0.76702422 -1.0545566 -0.34940571
0.77690893 -1.0760227 -0.35561737
0.77990049 -1.0881493 -0.35872319
0.78505665 -1.103458 -0.36286432
0.79680187 -1.128284 -0.37011126
0.81060082 -1.1563687 -0.37839344
0.81779808 -1.1749063 -0.38356987
0.824673 -1.1936479 -0.38874623
0.82705665 -1.2060785 -0.39185205
0.84871125 -1.2474352 -0.40427536
0.85948735 -1.2728043 -0.4115223
0.8722477 -1.3014733 -0.41980451
0.88267803 -1.3270292 -0.42705145
0.88868344 -1.3462248 -0.43222782
0.90091717 -1.3751739 -0.44051
0.91927785 -1.4139421 -0.45189807
0.93763185 -1.4526914 -0.4632861
0.94271803 -1.4723878 -0.4684625
0.97072434 -1.5278479 -0.4850269
0.98083967 -1.5557398 -0.49279147
1.0012969 -1.5999235 -0.50573242
1.0028402 -1.614897 -0.5093559
0.99443841 -1.6132802 -0.50780302
0.98851866 -1.6169142 -0.50780302
0.98086464 -1.6170514 -0.50676769
0.97919887 -1.6270862 -0.50883824
0.97577912 -1.6336415 -0.50987357
0.96387762 -1.6272341 -0.50676769
0.95623404 -1.6272576 -0.50573242
0.95443988 -1.6372614 -0.50780302
0.94678468 -1.6372384 -0.50676769
0.94298643 -1.6438848 -0.50780302
0.93179566 -1.6369294 -0.50469714
0.92607623 -1.6401719 -0.50469714
0.92223316 -1.6467656 -0.50573242
0.91835529 -1.6533524 -0.50676769
0.91444272 -1.6599323 -0.50780302
0.9049381 -1.6563326 -0.50573242
0.89454925 -1.6509888 -0.50314426
0.89152384 -1.6592065 -0.50469714
0.88572669 -1.6623083 -0.50469714
0.88172388 -1.6688061 -0.50573242
0.87230718 -1.6650289 -0.50366187
0.86499923 -1.664484 -0.5026266
0.86213017 -1.6724946 -0.50417954
0.85716593 -1.6772143 -0.50469714
0.85305256 -1.6836425 -0.50573242
0.84196764 -1.6762522 -0.5026266
0.83438909 -1.6757224 -0.50159132
0.83195478 -1.685554 -0.50366187
0.82776409 -1.6919184 -0.50469714
0.81848145 -1.6878445 -0.5026266
0.8125847 -1.6906912 -0.5026266
0.80418581 -1.688285 -0.50107372
0.8024112 -1.6998168 -0.50366187
0.79811001 -1.706107 -0.50469714
0.79569912 -1.7157545 -0.50676769
0.7816385 -1.7009678 -0.50159132
0.7756964 -1.7036859 -0.50159132
0.77053905 -1.7081441 -0.50210893
0.76693636 -1.7161148 -0.50366187
0.76250559 -1.7223141 -0.50469714
0.75183344 -1.7143502 -0.50159132
0.74430543 -1.7134204 -0.50055605
0.74137396 -1.7231064 -0.5026266
0.73686922 -1.7292382 -0.50366187
0.73233092 -1.7353594 -0.50469714
0.72179955 -1.7272105 -0.50159132
0.71576601 -1.7297195 -0.50159132
0.71118861 -1.7357827 -0.5026266
0.70512545 -1.7382545 -0.5026266
0.70337307 -1.7514614 -0.50573242
0.69184917 -1.7394238 -0.50159132
0.68405461 -1.7383524 -0.50055605
0.68218887 -1.7515306 -0.50366187
0.67607093 -1.7539011 -0.50366187
0.67162865 -1.7597431 -0.50469714
0.66411686 -1.7584623 -0.50366187
0.65391719 -1.7499121 -0.50055605
0.65048468 -1.759432 -0.5026266
0.64433908 -1.7616918 -0.5026266
0.64344364 -1.778463 -0.50676769
0.63072288 -1.7625093 -0.50159132
0.62585551 -1.7683426 -0.5026266
0.61967927 -1.7705165 -0.5026266
0.61475879 -1.77632 -0.50366187
0.61105627 -1.7857662 -0.50573242
0.60110486 -1.7769085 -0.5026266
0.59367299 -1.7753317 -0.50159132
0.59111011 -1.7883986 -0.50469714
0.58457601 -1.7885128 -0.50417954
0.58070469 -1.7978958 -0.50625008
0.57207584 -1.7925502 -0.50417954
0.56465334 -1.7908515 -0.50314426
0.56069672 -1.8001894 -0.50521481
0.55440927 -1.8021356 -0.50521481
0.55036175 -1.8114535 -0.50728536
0.54070437 -1.8022614 -0.50417954
0.53550732 -1.8078425 -0.50521481
0.5291937 -1.8097006 -0.50521481
0.52394462 -1.8152491 -0.50625008
0.52025139 -1.8263565 -0.50883824
