# .PCD v0.7 - Point Cloud Data file format
VERSION 0.7
FIELDS x y z intensity
SIZE 4 4 4 4
TYPE F F F F
COUNT 1 1 1 1
WIDTH 159
HEIGHT 1
VIEWPOINT 0 0 0 1 0 0 0
POINTS 159
DATA ascii
-15.241757 -0.8098467 -2.545126 6.0796814
-15.230812 -0.80974203 -2.5979786 6.079742
-15.219683 -0.80963731 -2.650784 6.079802
-15.206875 -0.80942798 -2.7005417 6.0798593
-15.207182 -0.80995136 -2.7553883 6.0799193
-15.201889 -0.8101607 -2.8065276 6.0799766
-15.174335 -0.80921865 -2.8562486 6.0800366
-15.179457 -0.81005603 -2.9148595 6.0801001
-15.165269 -0.8098467 -2.9670615 6.0801601
-15.157305 -0.80995136 -3.0177238 6.0802174
-15.148636 -0.81005603 -3.0710132 6.0802774
-15.123587 -0.80932331 -3.1236856 6.0803409
-15.112591 -0.80932331 -3.1764581 6.0804009
-15.091646 -0.80879992 -3.2271039 6.080461
-15.068579 -0.80817193 -3.2772157 6.0805211
-15.045346 -0.80754387 -3.3272095 6.0805812
-15.014155 -0.80649716 -3.3753254 6.0806417
-14.975619 -0.80503178 -3.4188726 6.080699
-14.949975 -0.80429906 -3.4679677 6.080759
-14.926114 -0.80367106 -3.5173817 6.0808191
-14.890437 -0.80241495 -3.5638838 6.0808792
-14.870142 -0.80199623 -3.6139529 6.0809393
-14.824471 -0.80021685 -3.6577044 6.0809999
-14.792239 -0.79917014 -3.7045755 6.0810599
-14.763733 -0.79833275 -3.7522526 6.08112
-14.740874 -0.79780936 -3.8012712 6.0811801
-14.690804 -0.79582059 -3.8430982 6.0812402
-14.654134 -0.7945646 -3.8882113 6.0813007
-14.6289 -0.79393655 -3.9362249 6.0813608
-14.599656 -0.79309916 -3.9830601 6.0814209
-14.589513 -0.7933085 -4.0350633 6.081481
-14.563801 -0.7926805 -4.0827293 6.0815415
-14.487981 -0.78933096 -4.1160774 6.0816016
-14.447381 -0.78786558 -4.1563668 6.0816588
-14.42128 -0.78723752 -4.2034192 6.0817189
-14.363637 -0.78493476 -4.2437983 6.0817819
-14.379351 -0.78660947 -4.3030705 6.0818424
-14.322191 -0.7843067 -4.3404961 6.0819025
-14.264946 -0.78200394 -4.3775711 6.0819626
-14.238908 -0.78137589 -4.421298 6.0820198
-14.208145 -0.7805385 -4.4661818 6.0820799
-14.169629 -0.77928245 -4.5084834 6.08214
-14.108179 -0.77677035 -4.5432253 6.0822005
-14.077044 -0.77593297 -4.587492 6.0822606
-13.992659 -0.77216476 -4.6140876 6.0823207
-13.946155 -0.77049005 -4.6527882 6.0823808
-13.929829 -0.77049005 -4.7014399 6.0824409
-13.883089 -0.76881528 -4.7397127 6.0825014
-13.84003 -0.76734984 -4.779017 6.0825615
-13.804408 -0.76630318 -4.8207159 6.0826216
-13.768662 -0.7652564 -4.8622208 6.0826817
-13.692268 -0.76190692 -4.8863711 6.0827389
-13.671372 -0.76169759 -4.9327798 6.082799
-13.661574 -0.76211625 -4.983211 6.0828595
-13.617863 -0.76065087 -5.021194 6.0829196
-13.59365 -0.76023221 -5.0635371 6.0829768
-13.557201 -0.75918543 -5.1039186 6.0830369
-13.542136 -0.75939476 -5.154995 6.0831003
-13.436445 -0.75447518 -5.1685348 6.0831604
-13.445297 -0.75594062 -5.2231855 6.0832176
-13.352615 -0.75175375 -5.2408996 6.0832777
-13.318464 -0.75091636 -5.2839127 6.0833406
-13.266569 -0.74903226 -5.3169947 6.0834012
-13.240524 -0.7486136 -5.3602738 6.0834613
-13.21064 -0.74798554 -5.4019246 6.0835214
-13.158475 -0.74610144 -5.4342809 6.0835814
-13.15786 -0.74714822 -5.4878678 6.083642
-13.13126 -0.74672949 -5.5306635 6.0837021
-13.082468 -0.74505478 -5.5639601 6.0837622
-13.071286 -0.74547344 -5.6104622 6.0838194
-13.041613 -0.74484539 -5.6490149 6.0838766
-13.004507 -0.74379867 -5.6842322 6.0839338
-12.952354 -0.7421239 -5.7234735 6.084003
-12.92865 -0.74191457 -5.767024 6.0840631
-12.890229 -0.74086791 -5.8039179 6.0841231
-12.858981 -0.74023986 -5.8439198 6.0841832
-12.860288 -0.74149591 -5.8987632 6.0842438
-12.789903 -0.73856509 -5.9178934 6.084301
-12.770207 -0.73856509 -5.9602742 6.0843577
-12.724028 -0.73709965 -5.9929004 6.0844183
-12.677778 -0.73563427 -6.0252743 6.0844784
-12.65921 -0.7358436 -6.0734277 6.0845413
-12.56962 -0.73186606 -6.0845118 6.0846019
-12.524246 -0.73040068 -6.1138949 6.0846591
-12.484911 -0.72935396 -6.1487517 6.0847192
-12.440829 -0.72809792 -6.1838026 6.0847821
-12.429879 -0.72872591 -6.2325625 6.0848427
-12.365275 -0.72621381 -6.2542753 6.0849028
-12.350483 -0.72663248 -6.3010345 6.0849628
-12.286896 -0.72412038 -6.3200274 6.0850201
-12.264759 -0.72412038 -6.3628788 6.0850801
-12.207081 -0.72202694 -6.3871331 6.0851402
-12.163514 -0.72077084 -6.4185205 6.0852008
-12.136381 -0.7205615 -6.4611821 6.0852637
-12.113754 -0.7205615 -6.5035067 6.0853238
-12.023101 -0.71658397 -6.5117145 6.0853872
-11.992064 -0.71595591 -6.5437145 6.0854411
-11.915509 -0.71281582 -6.5587311 6.0855045
-11.82618 -0.70883828 -6.5634542 6.0855646
-11.795635 -0.7083149 -6.5977612 6.0856218
-11.764991 -0.70779151 -6.6319366 6.0856791
-11.751022 -0.70841956 -6.6809363 6.085742
-11.72763 -0.70841956 -6.7219148 6.0858026
-11.69663 -0.70789623 -6.7557712 6.0858598
-11.672974 -0.70789623 -6.7965617 6.0859199
-11.659514 -0.70852429 -6.8433299 6.0859799
-11.614929 -0.70726818 -6.8717852 6.08604
-11.589664 -0.70726818 -6.914309 6.0861034
-11.541495 -0.7058028 -6.9403129 6.0861635
-11.508167 -0.70517474 -6.9723387 6.0862207
-11.466713 -0.70412803 -7.0020585 6.0862808
-11.476219 -0.70622146 -7.0629792 6.0863409
-11.390394 -0.70245332 -7.0650973 6.0864015
-11.341954 -0.70098788 -7.0899897 6.0864615
-11.293476 -0.69952244 -7.1146326 6.0865216
-11.268573 -0.69952244 -7.1540117 6.0865817
-11.206519 -0.69721967 -7.1696234 6.0866418
-11.152463 -0.69533557 -7.1872711 6.086699
-11.112231 -0.69439352 -7.2163677 6.0867596
-11.084899 -0.69418418 -7.2509885 6.0868163
-11.02863 -0.69240475 -7.2748046 6.0868826
-11.019803 -0.69345152 -7.3243136 6.0869427
-10.9643 -0.69156742 -7.3427286 6.0870032
-10.941914 -0.69177675 -7.3831906 6.0870633
-11.005266 -0.697429 -7.4819779 6.0871234
-10.996874 -0.69847572 -7.529716 6.0871806
-10.99354 -0.69994116 -7.5839348 6.0872407
-10.993241 -0.70161593 -7.6405015 6.0873008
-10.91742 -0.69847572 -7.6444607 6.0873613
-10.929841 -0.70098788 -7.7101517 6.0874214
-10.873556 -0.69910377 -7.7274318 6.0874815
-10.846516 -0.69910377 -7.7653408 6.0875416
-10.786945 -0.69701034 -7.779789 6.0876021
-10.769418 -0.69763839 -7.824439 6.0876622
-10.713029 -0.69575429 -7.8407512 6.0877223
-10.711315 -0.697429 -7.8970628 6.0877824
-10.699718 -0.69847572 -7.9463129 6.0878425
-10.649528 -0.69701034 -7.9668612 6.087903
-10.629627 -0.69753373 -8.0099993 6.0879631
-10.563422 -0.69502157 -8.0180712 6.0880232
-10.573449 -0.69753373 -8.0840101 6.0880833
-10.538836 -0.697115 -8.1159945 6.0881438
-10.516754 -0.69753373 -8.15763 6.0882039
-10.425261 -0.69334686 -8.1451054 6.088264
-10.384208 -0.69250941 -8.171566 6.0883241
-10.369577 -0.69334686 -8.2158794 6.0883813
-10.353325 -0.69418418 -8.2619905 6.0884414
-10.282502 -0.69146276 -8.2673454 6.0885048
-10.250478 -0.69125336 -8.3006716 6.0885649
-10.222893 -0.69125336 -8.3346195 6.0886221
-10.173589 -0.68978798 -8.3507299 6.0886793
-10.184399 -0.69250941 -8.419281 6.0887394
-10.09969 -0.68874127 -8.4087744 6.0887995
-10.048851 -0.68727589 -8.426012 6.0888596
-10.043795 -0.6889506 -8.4816532 6.0889201
-9.9791708 -0.68664783 -8.4899397 6.0889831
-9.985877 -0.68915993 -8.5559072 6.0890431
-9.9060278 -0.68560106 -8.5446205 6.0891004
-9.891221 -0.68664783 -8.5922461 6.0891609
