# .PCD v0.7 - Point Cloud Data file format
VERSION 0.7
FIELDS x y z
SIZE 4 4 4
TYPE F F F
COUNT 1 1 1
WIDTH 128
HEIGHT 1
VIEWPOINT 0 0 0 1 0 0 0
POINTS 128
DATA ascii
-0.067762353 -0.84404981 -0.074082382
-0.06904453 -0.82395387 -0.072339267
-0.071226962 -0.81576848 -0.071642019
-0.074434578 -0.81948334 -0.071990639
-0.076171748 -0.80731702 -0.070944771
-0.078212969 -0.79911458 -0.070247531
-0.080399036 -0.79288995 -0.06972459
-0.083582014 -0.79656756 -0.070073217
-0.084858246 -0.78240556 -0.068853036
-0.084927931 -0.75834441 -0.0667613
-0.08505927 -0.73627186 -0.064843871
-0.086559534 -0.72807193 -0.06414663
-0.089584708 -0.73172057 -0.064495243
-0.091391295 -0.72547311 -0.063972317
-0.09264344 -0.71527028 -0.063100755
-0.095139652 -0.71494251 -0.063100755
-0.098983258 -0.72447628 -0.063972317
-0.10040509 -0.71623403 -0.063275069
-0.10318819 -0.71785128 -0.063449383
-0.1045318 -0.70960224 -0.062752135
-0.10581917 -0.7013526 -0.062054887
-0.10705025 -0.69310284 -0.061357643
-0.1099694 -0.69668007 -0.061706264
-0.11303556 -0.70022577 -0.062054887
-0.11418162 -0.69196379 -0.061357643
-0.1152714 -0.68370235 -0.060660396
-0.11799528 -0.68525928 -0.060834706
-0.11969677 -0.68091863 -0.060486082
-0.12383181 -0.69030213 -0.061357643
-0.12301286 -0.67222703 -0.059788838
-0.12499323 -0.66983491 -0.059614524
-0.12658595 -0.6654799 -0.0592659
-0.12928739 -0.66699004 -0.059440218
-0.13238668 -0.67044401 -0.059788838
-0.13276218 -0.66021138 -0.058917284
-0.13506603 -0.65974391 -0.058917284
-0.13696165 -0.65731788 -0.05874297
-0.14008176 -0.66073394 -0.059091594
-0.14448743 -0.66997904 -0.059963148
-0.14329655 -0.65392649 -0.05856866
-0.14601152 -0.65536702 -0.05874297
-0.14642516 -0.64710617 -0.058045723
-0.15046909 -0.65435797 -0.05874297
-0.15241276 -0.65186208 -0.05856866
-0.1545736 -0.65135306 -0.05856866
-0.15591271 -0.64693564 -0.058220036
-0.15722288 -0.64251691 -0.057871412
-0.16138592 -0.64969867 -0.05856866
-0.16365282 -0.64913136 -0.05856866
-0.16295491 -0.63697475 -0.057522789
-0.16317517 -0.62868816 -0.056825541
-0.16942695 -0.64352858 -0.058220036
-0.17321414 -0.64870805 -0.05874297
-0.17484404 -0.64620692 -0.05856866
-0.17499037 -0.63790703 -0.057871412
-0.17347956 -0.62385541 -0.056651231
-0.17943946 -0.63666981 -0.057871412
-0.18166076 -0.63603956 -0.057871412
-0.18332605 -0.63348776 -0.057697102
-0.18217294 -0.62137246 -0.056651231
-0.18490811 -0.62264264 -0.056825541
-0.1869718 -0.62202609 -0.056825541
-0.18856178 -0.61946362 -0.056651231
-0.19013605 -0.61689758 -0.056476917
-0.19347525 -0.62003404 -0.056825541
-0.19263782 -0.60985559 -0.055953983
-0.19658569 -0.61487269 -0.056476917
-0.20230183 -0.62559181 -0.057522789
-0.20634322 -0.6305626 -0.058045723
-0.20415927 -0.61659867 -0.056825541
-0.20631038 -0.61588222 -0.056825541
-0.20845897 -0.61515832 -0.056825541
-0.20931289 -0.61065739 -0.056476917
-0.21274842 -0.61368805 -0.056825541
-0.21488933 -0.61294162 -0.056825541
-0.21569605 -0.60843205 -0.056476917
-0.21714638 -0.60579985 -0.056302607
-0.22061729 -0.60878462 -0.056651231
-0.22400497 -0.61179149 -0.056999855
-0.22198981 -0.59979469 -0.055953983
-0.22198786 -0.59341788 -0.055431053
-0.22617169 -0.59823036 -0.055953983
-0.22896966 -0.59929848 -0.056128301
-0.238236 -0.61708236 -0.057871412
-0.23749226 -0.60882235 -0.057174165
-0.23888546 -0.60613596 -0.056999855
-0.24247386 -0.60900056 -0.057348479
-0.2483155 -0.61739284 -0.058220036
-0.25196892 -0.62021405 -0.05856866
-0.25326815 -0.61753172 -0.058394346
-0.25465977 -0.61480319 -0.058220036
-0.25526655 -0.61023438 -0.057871412
-0.25817034 -0.61117494 -0.058045723
-0.26030216 -0.61027002 -0.058045723
-0.25927854 -0.60203815 -0.057348479
-0.25820062 -0.59382081 -0.056651231
-0.26667848 -0.60751075 -0.058045723
-0.26788476 -0.60480142 -0.057871412
-0.2748737 -0.61477584 -0.058917284
-0.27455929 -0.60836446 -0.058394346
-0.27750713 -0.60921556 -0.05856866
-0.28129643 -0.61186373 -0.058917284
-0.28343055 -0.61087805 -0.058917284
-0.28967744 -0.61895746 -0.059788838
-0.28843293 -0.61073619 -0.059091594
-0.28456306 -0.59713554 -0.057871412
-0.29441643 -0.61229891 -0.059440218
-0.29829112 -0.61485261 -0.059788838
-0.29955962 -0.61201811 -0.059614524
-0.29992989 -0.60739577 -0.0592659
-0.30382505 -0.60991192 -0.059614524
-0.30774137 -0.6124081 -0.059963148
-0.31348047 -0.61843866 -0.060660396
-0.31745121 -0.62088871 -0.06100902
-0.31596395 -0.61269349 -0.060311772
-0.3178871 -0.61169791 -0.060311772
-0.32002041 -0.61058456 -0.060311772
-0.32225618 -0.60940748 -0.060311772
-0.33188158 -0.62234312 -0.061706264
-0.33405197 -0.62118089 -0.061706264
-0.34001735 -0.62701678 -0.062403511
-0.34113923 -0.62413752 -0.062229201
-0.34908581 -0.63341254 -0.063275069
-0.3551656 -0.63915646 -0.063972317
-0.36140236 -0.64480251 -0.064669557
-0.36561134 -0.64700627 -0.065018184
-0.36392266 -0.6388014 -0.064320937
-0.3739748 -0.6514141 -0.065715425
