# .PCD v0.7 - Point Cloud Data file format
VERSION 0.7
FIELDS x y z
SIZE 4 4 4
TYPE F F F
COUNT 1 1 1
WIDTH 141
HEIGHT 1
VIEWPOINT 0 0 0 1 0 0 0
POINTS 141
DATA ascii
0.86075777 -0.57037151 0.054115385
0.84215111 -0.5622822 0.053068664
0.84515482 -0.56856304 0.053382684
0.8266322 -0.56030357 0.052335959
0.82806879 -0.56529391 0.052545305
0.8278355 -0.56916827 0.052649979
0.82256001 -0.56977999 0.052440636
0.8271175 -0.57721972 0.052859318
0.81356066 -0.57220441 0.052126616
0.80178052 -0.56811255 0.051498584
0.81289852 -0.58004904 0.052335959
0.81411242 -0.58521456 0.052545305
0.80235863 -0.58102423 0.051917274
0.79387134 -0.57911325 0.051498584
0.79818046 -0.58675086 0.051917274
0.78649688 -0.58240205 0.051289242
0.78125727 -0.58275557 0.051079899
0.79837942 -0.59987605 0.052335959
0.78672522 -0.59542739 0.051707931
0.7782886 -0.59332645 0.051289242
0.76997954 -0.5910396 0.050870556
0.76791173 -0.59372371 0.050870556
0.77844083 -0.60621792 0.051707931
0.77317703 -0.60646617 0.051498584
0.76165229 -0.60173255 0.050870556
0.75329578 -0.59941322 0.050451867
0.75442129 -0.60440552 0.05066121
0.76018578 -0.61317354 0.051184569
0.74563932 -0.60574853 0.050347198
0.74352032 -0.60834765 0.050347198
0.73985088 -0.60966915 0.050242521
0.73464441 -0.60969692 0.050033178
0.7386415 -0.6173811 0.050451867
0.72731405 -0.61223841 0.049823835
0.72201884 -0.61231643 0.049614493
0.719877 -0.614833 0.049614493
0.71772641 -0.61734211 0.049614493
0.72160566 -0.62507439 0.050033178
0.70888394 -0.61839885 0.049300473
0.70522052 -0.61955136 0.049195804
0.70016998 -0.61924022 0.048986461
0.70397002 -0.62699401 0.04940515
0.70475072 -0.63211471 0.049614493
0.69216484 -0.6251995 0.048881788
0.68702334 -0.62492406 0.048672445
0.69367439 -0.63541275 0.049300473
0.68704802 -0.63376766 0.048986461
0.6892215 -0.64024001 0.049300473
0.67834181 -0.63433701 0.048672445
0.67176133 -0.63259321 0.048358425
0.67534602 -0.64043158 0.048777115
0.67455083 -0.64416444 0.048881788
0.67229819 -0.64651507 0.048881788
0.66716778 -0.64607912 0.048672445
0.65775889 -0.64143187 0.048149083
0.65694094 -0.64512342 0.048253756
0.6575253 -0.65022135 0.048463102
0.65808213 -0.65533125 0.048672445
0.65296996 -0.65479583 0.048463102
0.64224809 -0.64855617 0.047835067
0.64569652 -0.65637761 0.048253756
0.64200568 -0.65719885 0.048149083
0.64121372 -0.66075754 0.048253756
0.63890332 -0.66299176 0.048253756
0.62277645 -0.65078801 0.047207039
0.62875593 -0.66164476 0.047835067
0.62769717 -0.66539764 0.04793974
0.62946701 -0.67195749 0.048253756
0.62167621 -0.66830122 0.047835067
0.61798435 -0.66900009 0.047730397
0.62104583 -0.6770404 0.048149083
0.62136859 -0.68215722 0.048358425
0.62032342 -0.68580335 0.048463102
0.60724884 -0.67607737 0.047625724
0.60488516 -0.67819297 0.047625724
0.60648686 -0.68478578 0.04793974
0.61872429 -0.70328826 0.04909113
0.6110096 -0.69942719 0.048672445
0.60332948 -0.69552082 0.048253756
0.60089797 -0.69762254 0.048253756
0.61793178 -0.72248316 0.049823835
0.62057757 -0.73072517 0.050242521
0.63089854 -0.74815536 0.051289242
0.62700099 -0.74882174 0.051184569
0.62579149 -0.75243235 0.051289242
0.64096576 -0.77617264 0.052754648
0.64598829 -0.78755933 0.053382684
0.65080267 -0.79910129 0.054010712
0.65038055 -0.80458766 0.054220054
0.65506887 -0.81619889 0.05484809
0.6573385 -0.82461369 0.055266771
0.66437203 -0.83943212 0.05610415
0.67377812 -0.85745025 0.057150867
0.67446655 -0.86452109 0.057464886
0.68000597 -0.87792325 0.058197591
0.68667728 -0.89295757 0.059034962
0.69688797 -0.91281158 0.060186356
0.70455521 -0.92956412 0.061128404
0.70490873 -0.93680549 0.061442416
0.71239191 -0.95366126 0.062384464
0.72333509 -0.97539335 0.063640527
0.73413491 -0.99721318 0.064896591
0.73772043 -1.0094451 0.065524623
0.74357492 -1.0249469 0.066361994
0.75067925 -1.0419918 0.067304045
0.76214081 -1.0657254 0.068664782
0.77113348 -1.0862943 0.069816172
0.79034543 -1.1216323 0.071909614
0.79329371 -1.1342043 0.072537638
0.79274678 -1.1418885 0.072851658
0.80142498 -1.1625996 0.074003048
0.80525649 -1.1769285 0.074735753
0.78523284 -1.1567373 0.073270351
0.76668239 -1.1379381 0.071909614
0.75604445 -1.1306459 0.071281582
0.74657112 -1.1249574 0.070758224
0.74483699 -1.1308924 0.070967562
0.7430703 -1.136829 0.071176901
0.72822839 -1.1226599 0.070130184
0.71998101 -1.1184775 0.069711499
0.72056991 -1.1275908 0.070130184
0.71575683 -1.1282876 0.070025519
0.70330209 -1.117257 0.06918814
0.69199121 -1.1078476 0.068455435
0.6975894 -1.1255351 0.069397487
0.69261003 -1.1262621 0.069292814
0.69387597 -1.1371975 0.069816172
0.68906635 -1.1377838 0.069711499
0.68406188 -1.1384702 0.069606826
0.67477268 -1.1323911 0.069083467
0.67671436 -1.1451734 0.069711499
0.67473298 -1.1509746 0.069920845
0.67492992 -1.1601113 0.070339531
0.66808313 -1.1571541 0.070025519
0.66622806 -1.162829 0.070234857
0.66335547 -1.1667683 0.070339531
0.66475326 -1.179747 0.070967562
0.66355425 -1.1872905 0.071281582
0.6623106 -1.1948401 0.071595594
0.65909815 -1.1988949 0.071700267
0.66160166 -1.2134632 0.072432972
