# .PCD v0.7 - Point Cloud Data file format
VERSION 0.7
FIELDS x y z intensity
SIZE 4 4 4 4
TYPE F F F F
COUNT 1 1 1 1
WIDTH 73
HEIGHT 1
VIEWPOINT 0 0 0 1 0 0 0
POINTS 73
DATA ascii
9.1489134 -13.917299 -0.87285918 3
9.0686293 -13.90064 -0.86982369 4
8.9416599 -13.816413 -0.86249667 5
8.8739491 -13.817289 -0.86061251 3
8.8525009 -13.89029 -0.86322939 3
8.7260294 -13.79788 -0.85558832 4
8.6568632 -13.789526 -0.85328549 3
8.5791063 -13.772194 -0.85035473 2
8.5033789 -13.762767 -0.84784257 5
8.4354515 -13.760013 -0.84585381 3
8.3987846 -13.808144 -0.84700519 1
8.3051281 -13.762138 -0.84239966 2
8.2447262 -13.770482 -0.84114355 1
8.1741695 -13.761397 -0.83884072 1
8.0834961 -13.717578 -0.83444458 0
8.0053244 -13.693984 -0.83130443 0
7.9438348 -13.692814 -0.82962966 0
7.8820415 -13.696223 -0.82816422 0
7.808033 -13.683388 -0.82565212 0
7.7346425 -13.665368 -0.82293069 0
7.677547 -13.670045 -0.82167459 0
7.6049514 -13.64658 -0.81874377 1
7.5596552 -13.671723 -0.81874377 0
7.4667945 -13.627084 -0.81434757 0
7.4039235 -13.624987 -0.81267279 0
7.337368 -13.615585 -0.81057936 0
7.2714615 -13.601091 -0.80827659 0
7.2113452 -13.596899 -0.80660182 0
7.145247 -13.586633 -0.80450839 0
7.0787845 -13.580851 -0.80262429 0
7.0271277 -13.603156 -0.80241495 1
6.9504657 -13.570717 -0.79906547 1
6.881906 -13.547393 -0.79634398 1
6.8148112 -13.532089 -0.79404122 1
6.7609768 -13.536745 -0.7929945 1
6.6924148 -13.517306 -0.7904824 1
6.6252341 -13.505881 -0.78838897 1
6.5745554 -13.521741 -0.78797024 1
6.5013046 -13.49063 -0.78483003 1
6.4386802 -13.480803 -0.78294599 1
6.390522 -13.494858 -0.78252727 3
6.3552542 -13.542397 -0.78399271 2
6.2540455 -13.448593 -0.77729368 2
6.1953588 -13.444947 -0.7758283 5
6.1573811 -13.479951 -0.77666569 2
6.0715833 -13.415841 -0.77174604 8
6.030333 -13.443192 -0.77216476 7
5.9648924 -13.435213 -0.77038532 2
5.8954444 -13.404762 -0.7674545 3
5.8422351 -13.410611 -0.76661718 2
5.7708588 -13.374073 -0.7633723 2
5.71943 -13.383117 -0.76274431 2
5.6835866 -13.422241 -0.76389569 1
5.6119819 -13.383059 -0.76054621 1
5.5614033 -13.393343 -0.76002282 7
5.5039835 -13.386814 -0.75855744 7
5.4542103 -13.398546 -0.75813878 7
5.4171143 -13.441585 -0.75949949 2
5.3775606 -13.478964 -0.76054621 1
5.3304782 -13.497652 -0.76054621 1
5.2842336 -13.511534 -0.76033688 2
5.2399225 -13.537347 -0.76075554 5
5.1940637 -13.559286 -0.76096487 5
5.1573215 -13.605348 -0.76253498 2
5.1451573 -13.710262 -0.7674545 0
5.1097832 -13.76184 -0.76933861 0
5.0768628 -13.820839 -0.77164137 0
5.0463247 -13.887281 -0.77436286 0
5.0370026 -14.013825 -0.78043383 0
5.0148125 -14.106598 -0.7846207 0
4.9695158 -14.135322 -0.78524876 0
4.957005 -14.266638 -0.79152906 0
4.9746628 -14.480301 -0.80241495 0
