# .PCD v0.7 - Point Cloud Data file format
VERSION 0.7
FIELDS x y z intensity
SIZE 4 4 4 4
TYPE F F F F
COUNT 1 1 1 1
WIDTH 72
HEIGHT 1
VIEWPOINT 0 0 0 1 0 0 0
POINTS 72
DATA ascii
3.8510826 3.8929813 1.264225 12
3.8646455 3.8795173 1.264225 10
3.8478024 3.8357348 1.2543271 11
3.8500879 3.8113132 1.2507279 12
3.8592002 3.7937512 1.2493782 12
3.8570812 3.7652819 1.2444292 9
3.8708549 3.7511203 1.2444292 15
3.8614597 3.715965 1.2372309 13
3.869416 3.696403 1.2354312 15
3.8810086 3.6842296 1.2354312 17
3.8846996 3.6633167 1.2327318 18
3.8832395 3.6364126 1.2282327 14
3.9001877 3.6268194 1.2295824 16
3.8985081 3.599961 1.2250834 10
3.9038687 3.5797467 1.222834 11
3.9192228 3.5687208 1.2237337 14
3.932276 3.5543332 1.2237337 14
3.9345078 3.5314722 1.2205844 9
3.941833 3.5145156 1.2192347 14
3.9482398 3.4955688 1.2174351 11
3.9662728 3.4869111 1.2192347 11
3.9857614 3.4794517 1.2214842 9
3.9940686 3.4609921 1.2201345 11
4.0046477 3.4457591 1.2196846 12
4.0270233 3.4406192 1.222834 11
4.0791321 3.4605787 1.2349813 39
4.0777726 3.4350204 1.2309321 26
4.0921297 3.423981 1.231832 28
4.1034627 3.4103911 1.231832 34
4.1198502 3.3997684 1.2331817 37
4.1407361 3.3927779 1.2358811 35
4.1706944 3.39306 1.2412798 36
4.1809983 3.3772554 1.2408301 28
4.2152219 3.3782415 1.2471286 23
4.2391887 3.3732131 1.2507279 21
4.2677584 3.3716822 1.2556767 23
4.2927151 3.3683372 1.2597259 26
4.3059812 3.3545327 1.2601758 24
4.3192067 3.3406727 1.2606257 23
4.3447514 3.3362582 1.2646748 19
4.3749685 3.335248 1.2700737 23
4.3974624 3.3281875 1.2732229 15
4.4115896 3.3159292 1.2741227 9
4.4356318 3.3098342 1.277722 9
4.4602609 3.3028331 1.2813212 9
4.481185 3.2941678 1.2840205 9
4.5052505 3.2876945 1.2876198 13
4.5119638 3.2685192 1.2862701 14
4.5259409 3.2558157 1.2871699 14
4.5277638 3.2332015 1.2844704 13
4.5453811 3.2218854 1.2862701 14
4.5597878 3.2082412 1.2871699 13
4.5709596 3.1923037 1.2871699 11
4.5804734 3.1752195 1.28672 12
4.5947394 3.1614218 1.2876198 11
4.5993085 3.1409683 1.2858201 19
4.6118588 3.1259868 1.2862701 27
4.6324449 3.1163948 1.2889696 30
4.6027765 3.0731542 1.277722 17
4.5939832 3.0441506 1.2723231 9
4.6094637 3.031311 1.2736728 9
4.6330733 3.0237222 1.2772721 15
4.6823268 3.033772 1.2880697 42
4.6797738 3.0089784 1.2844704 26
4.6968198 2.9968185 1.2862701 34
4.7039595 2.9783192 1.2853703 33
4.721446 2.9652026 1.2871699 34
4.7483058 2.9590113 1.2916689 39
4.753633 2.9393449 1.2903192 46
4.7738314 2.9288468 1.2930186 51
4.7890186 2.915206 1.2943684 56
4.8008347 2.8994777 1.2948182 27
