# .PCD v0.7 - Point Cloud Data file format
VERSION 0.7
FIELDS x y z
SIZE 4 4 4
TYPE F F F
COUNT 1 1 1
WIDTH 300
HEIGHT 1
VIEWPOINT 0 0 0 1 0 0 0
POINTS 300
DATA ascii
-0.47150272 0.57770741 -0.1998083
-0.48883826 0.60344964 -0.20809051
-0.46735668 0.58106661 -0.1998083
-0.45578119 0.57053822 -0.19566721
-0.45148501 0.56901991 -0.19463193
-0.46373871 0.58888388 -0.20084359
-0.45573094 0.5828895 -0.19825539
-0.44411713 0.57234573 -0.1941143
-0.44329539 0.575423 -0.19463193
-0.44480506 0.58157027 -0.19618484
-0.44861344 0.59081233 -0.19877303
-0.44422281 0.58928937 -0.19773777
-0.43647748 0.58302665 -0.19514956
-0.43213478 0.58144575 -0.1941143
-0.43249881 0.58598417 -0.19514956
-0.43501765 0.59372371 -0.19722012
-0.43283874 0.59531409 -0.19722012
-0.42407686 0.5873487 -0.1941143
-0.41649854 0.58090162 -0.1915261
-0.41884646 0.58872068 -0.19359665
-0.4145599 0.5870232 -0.19256137
-0.42027035 0.59954011 -0.19618484
-0.41276184 0.59300256 -0.19359665
-0.40629679 0.58808219 -0.1915261
-0.40751928 0.59427649 -0.19307902
-0.41185871 0.60534942 -0.19618484
-0.41082415 0.60838455 -0.19670248
-0.40224496 0.60018611 -0.19359665
-0.40025228 0.60151684 -0.19359665
-0.39602113 0.59968609 -0.19256137
-0.39498451 0.6026805 -0.19307902
-0.39919794 0.61377233 -0.19618484
-0.38867211 0.60217708 -0.19204374
-0.38344175 0.59864998 -0.19049083
-0.38549495 0.60650623 -0.19256137
-0.38646704 0.61275023 -0.1941143
-0.38740051 0.61900824 -0.19566721
-0.37912267 0.61050975 -0.19256137
-0.3720274 0.60354108 -0.18997319
-0.37294236 0.60978007 -0.1915261
-0.37181363 0.61272985 -0.19204374
-0.3736583 0.62064409 -0.1941143
-0.36257374 0.60701811 -0.18945555
-0.36143756 0.60994184 -0.18997319
-0.3593064 0.61119974 -0.18997319
-0.35825095 0.61405665 -0.19049083
-0.36395657 0.62861598 -0.19463193
-0.35587895 0.61989349 -0.1915261
-0.352649 0.61951476 -0.19100846
-0.35249275 0.62404501 -0.19204374
-0.35136607 0.62689555 -0.19256137
-0.35386866 0.63656074 -0.19514956
-0.34324998 0.62256628 -0.19049083
-0.33922091 0.62037075 -0.18945555
-0.33981618 0.62664568 -0.19100846
-0.3394568 0.63123083 -0.19204374
-0.34088728 0.63923043 -0.1941143
-0.33052632 0.62504643 -0.18945555
-0.32665676 0.62271762 -0.18842028
-0.33428696 0.64270669 -0.1941143
-0.32761407 0.63528478 -0.1915261
-0.32979187 0.64502484 -0.1941143
-0.31880409 0.6289407 -0.1889379
-0.31920883 0.63522834 -0.19049083
-0.31698966 0.63633865 -0.19049083
-0.31476632 0.63744134 -0.19049083
-0.32029721 0.6540966 -0.19514956
-0.31210712 0.64304501 -0.1915261
-0.30567342 0.63542604 -0.1889379
-0.30844161 0.64695209 -0.19204374
-0.30783218 0.65151817 -0.19307902
-0.30801377 0.65783733 -0.19463193
-0.30002394 0.64664173 -0.19100846
-0.29453722 0.64066398 -0.1889379
-0.2947014 0.64696246 -0.19049083
-0.29323608 0.64974797 -0.19100846
-0.29333195 0.65605831 -0.19256137
-0.28869283 0.65177929 -0.19100846
-0.28342399 0.6456573 -0.1889379
-0.28193867 0.64841443 -0.18945555
-0.28425848 0.66004038 -0.19256137
-0.28119469 0.65925169 -0.19204374
-0.27588496 0.65311074 -0.18997319
-0.27211261 0.65050536 -0.1889379
-0.27279726 0.65859056 -0.19100846
-0.27122954 0.66132617 -0.1915261
-0.26964638 0.6640588 -0.19204374
-0.26372412 0.65603375 -0.18945555
-0.26000375 0.65336049 -0.18842028
-0.26055342 0.6614539 -0.19049083
-0.25964656 0.665959 -0.1915261
-0.2587114 0.67046595 -0.19256137
-0.25223434 0.66053659 -0.18945555
-0.24856149 0.65779865 -0.18842028
-0.25032294 0.66951936 -0.1915261
-0.24798448 0.670389 -0.1915261
-0.24564302 0.67125046 -0.1915261
-0.24198315 0.66847104 -0.19049083
-0.2396484 0.66931152 -0.19049083
-0.23871772 0.67374444 -0.1915261
-0.23520407 0.67088628 -0.19049083
-0.23527321 0.67904544 -0.19256137
-0.23164944 0.67620724 -0.1915261
-0.22556961 0.66603321 -0.18842028
-0.22692299 0.67780799 -0.1915261
-0.22576958 0.68226409 -0.19256137
-0.22338648 0.68304807 -0.19256137
-0.21862462 0.6764707 -0.19049083
-0.21755594 0.68087232 -0.1915261
-0.2150591 0.68166512 -0.1915261
-0.21382812 0.68610036 -0.19256137
-0.21017572 0.68318659 -0.1915261
-0.20678504 0.68018329 -0.19049083
-0.20440964 0.68090087 -0.19049083
-0.20203175 0.68161023 -0.19049083
-0.20073611 0.68601954 -0.1915261
-0.19941251 0.69042802 -0.19256137
-0.19765155 0.69294327 -0.19307902
-0.19325781 0.68615693 -0.19100846
-0.19229218 0.69244486 -0.19256137
-0.1902632 0.69500828 -0.19307902
-0.18884297 0.69939834 -0.1941143
-0.18292114 0.68698561 -0.19049083
-0.18150324 0.6913569 -0.1915261
-0.1795727 0.69385654 -0.19204374
-0.17810471 0.69822294 -0.19307902
-0.17767361 0.7063036 -0.19514956
-0.17241845 0.69566888 -0.19204374
-0.16953067 0.6943897 -0.1915261
-0.16936445 0.70436877 -0.1941143
-0.16734961 0.70683557 -0.19463193
-0.1657581 0.7111783 -0.19566721
-0.16253409 0.7079584 -0.19463193
-0.15823689 0.7010116 -0.19256137
-0.15578909 0.70155966 -0.19256137
-0.15568775 0.71345055 -0.19566721
-0.15344575 0.71393609 -0.19566721
-0.15003015 0.71071333 -0.19463193
-0.14597853 0.70366645 -0.19256137
-0.14506477 0.71174341 -0.19463193
-0.14333764 0.716034 -0.19566721
-0.14158234 0.72032118 -0.19670248
-0.13833565 0.71701717 -0.19566721
-0.13367569 0.7061069 -0.19256137
-0.13332655 0.71796548 -0.19566721
-0.13289586 0.72983003 -0.19877303
-0.1296684 0.72648603 -0.19773777
-0.125135 0.71551639 -0.19463193
-0.12276173 0.71592736 -0.19463193
-0.12250065 0.72968793 -0.19825539
-0.11838701 0.7205795 -0.19566721
-0.11771001 0.73243266 -0.19877303
-0.11335319 0.72138852 -0.19566721
-0.11083487 0.72177976 -0.19566721
-0.10888762 0.72598326 -0.19670248
-0.10831209 0.73973918 -0.20032595
-0.10558504 0.73818183 -0.1998083
-0.10127908 0.72708374 -0.19670248
-0.099520147 0.73317569 -0.19825539
-0.095568284 0.72395933 -0.19566721
-0.09513896 0.73960072 -0.1998083
-0.093036063 0.7437622 -0.20084359
-0.088701546 0.72872514 -0.19670248
-0.087064691 0.73670411 -0.19877303
-0.084492393 0.73700356 -0.19877303
-0.082772382 0.7449742 -0.20084359
-0.080791481 0.75102091 -0.20239651
-0.077369548 0.74361247 -0.20032595
-0.074580327 0.74195582 -0.1998083
-0.072046392 0.74414706 -0.20032595
-0.069986917 0.75016445 -0.20187886
-0.067368083 0.75040418 -0.20187886
-0.064712726 0.74869889 -0.20136122
-0.062418316 0.75277072 -0.20239651
-0.059790075 0.75298399 -0.20239651
-0.056722526 0.74740911 -0.20084359
-0.055222493 0.76108062 -0.20446704
-0.052033339 0.75355971 -0.20239651
-0.04902336 0.74795359 -0.20084359
-0.046891216 0.75583273 -0.20291413
-0.044478156 0.75984895 -0.20394942
-0.042356089 0.7696442 -0.2065376
-0.03897348 0.75628233 -0.20291413
-0.036518499 0.76027304 -0.20394942
-0.034122437 0.7661857 -0.20550233
-0.03158164 0.7662946 -0.20550233
-0.029259576 0.77218652 -0.20705524
-0.026231712 0.7626304 -0.20446704
-0.023689343 0.76657921 -0.20550233
-0.020984152 0.77052313 -0.2065376
-0.018203223 0.76672906 -0.20550233
-0.015936473 0.78030539 -0.2091258
-0.013183745 0.77069604 -0.2065376
-0.010280832 0.7649442 -0.20498469
-0.0075713117 0.77463555 -0.20757288
-0.0048674461 0.77465731 -0.20757288
-0.0023101829 0.7785328 -0.20860817
0.00040357935 0.7708087 -0.2065376
0.0030630212 0.76307529 -0.20446704
0.005799327 0.77271891 -0.20705524
0.0084755477 0.77076221 -0.2065376
0.011137446 0.76879638 -0.20601997
0.013687019 0.7687552 -0.20601997
0.0162472 0.76290846 -0.20446704
0.018634245 0.75705659 -0.20291413
0.021330867 0.75891799 -0.20343177
0.023980057 0.75883889 -0.20343177
0.026018778 0.74137455 -0.19877303
0.028287066 0.72969186 -0.19566721
0.030996984 0.73344898 -0.19670248
0.033380587 0.72947657 -0.19566721
0.03592658 0.72935563 -0.19566721
0.037736218 0.71765739 -0.19256137
0.039267693 0.70016193 -0.18790263
0.041941475 0.70387739 -0.1889379
0.04439773 0.70372671 -0.1889379
0.047367584 0.71127784 -0.19100846
0.048093732 0.68605548 -0.18427916
0.049944244 0.6801123 -0.18272625
0.052585363 0.68185079 -0.18324389
0.055275541 0.68551427 -0.18427916
0.057344299 0.68146706 -0.18324389
0.057919953 0.66202813 -0.17806751
0.060930725 0.66951758 -0.18013807
0.062540375 0.66160762 -0.17806751
0.065226637 0.66523057 -0.17910279
0.068328775 0.67268676 -0.18117334
0.068543307 0.65324336 -0.17599694
0.070293106 0.64917123 -0.17496169
0.071914859 0.64316225 -0.17340876
0.075266197 0.65250289 -0.17599694
0.07685937 0.64648116 -0.17444403
0.078287788 0.63852519 -0.17237349
0.07979098 0.63249803 -0.17082058
0.083128579 0.64180923 -0.17340876
0.085225366 0.63958526 -0.17289113
0.087980986 0.643112 -0.17392641
0.09022519 0.64280099 -0.17392641
0.092356473 0.6424982 -0.17392641
0.094598822 0.64217192 -0.17392641
0.097591333 0.64758551 -0.17547932
0.10173333 0.65867877 -0.17858516
0.10233543 0.64685279 -0.17547932
0.10478828 0.64841688 -0.17599694
0.10662328 0.64615983 -0.17547932
0.11112654 0.65911841 -0.17910279
0.11277084 0.65491885 -0.17806751
0.11505643 0.65452123 -0.17806751
0.11699919 0.65221411 -0.17754988
0.11730061 0.64037943 -0.17444403
0.12343685 0.66085523 -0.18013807
0.12646575 0.6642158 -0.18117334
0.12719704 0.65620661 -0.17910279
0.12960117 0.65573603 -0.17910279
0.13341424 0.66285515 -0.18117334
0.13506643 0.65857679 -0.18013807
0.1387112 0.66571409 -0.18220863
0.13943133 0.6576665 -0.18013807
0.14213327 0.65906417 -0.1806557
0.14443316 0.65856403 -0.1806557
0.14745663 0.66185272 -0.18169098
0.15073533 0.66507596 -0.18272625
0.15045461 0.65325028 -0.17962041
0.15537444 0.66400748 -0.18272625
0.15668292 0.65972942 -0.18169098
0.16079682 0.66669041 -0.18376154
0.16312288 0.66612512 -0.18376154
0.16451487 0.66180211 -0.18272625
0.16776934 0.66497004 -0.18376154
0.17008935 0.66438043 -0.18376154
0.17240761 0.6637826 -0.18376154
0.17767653 0.67438543 -0.18686737
0.17991178 0.67379254 -0.18686737
0.17934938 0.66194075 -0.18376154
0.18319356 0.66689926 -0.18531445
0.18655697 0.66997784 -0.18634972
0.19192415 0.68051142 -0.18945555
0.1900513 0.66497749 -0.18531445
0.19237122 0.6643101 -0.18531445
0.19795203 0.67475688 -0.18842028
0.2019569 0.67961729 -0.18997319
0.20599842 0.68445772 -0.1915261
0.20725983 0.68003875 -0.19049083
0.20678425 0.67008126 -0.18790263
0.21142623 0.67673123 -0.18997319
0.21483381 0.67971045 -0.19100846
0.22296925 0.69739532 -0.19618484
0.2224288 0.68742257 -0.19359665
0.22422603 0.68480599 -0.19307902
0.23026021 0.69502211 -0.19618484
0.23329903 0.69604582 -0.19670248
0.24068978 0.7098636 -0.20084359
0.23564546 0.68709075 -0.19463193
0.23994187 0.69173938 -0.19618484
0.24491273 0.69818956 -0.19825539
0.24864019 0.70097172 -0.19929068
0.25096354 0.70014322 -0.19929068
0.25274727 0.69744682 -0.19877303
0.25052875 0.68386257 -0.19514956
0.2623066 0.70834666 -0.20239651
