# .PCD v0.7 - Point Cloud Data file format
VERSION 0.7
FIELDS x y z intensity
SIZE 4 4 4 4
TYPE F F F F
COUNT 1 1 1 1
WIDTH 125
HEIGHT 1
VIEWPOINT 0 0 0 1 0 0 0
POINTS 125
DATA ascii
-10.688152 37.029945 6.1043868 28
-10.556112 37.057529 6.1028218 37
-10.419751 37.069427 6.0987544 46
-10.279724 37.067505 6.0924973 46
-10.154147 37.091862 6.0909328 46
-10.014817 37.090851 6.0849886 46
-9.878685 37.100765 6.0809212 56
-9.7336235 37.102325 6.0752897 56
-9.5807953 37.046192 6.0605845 46
-9.2992201 36.455681 5.9589024 36
-9.1415615 36.367229 5.9391918 44
-9.0022211 36.34906 5.931057 44
-8.8710604 36.362991 5.9282408 53
-8.7463913 36.403339 5.9298058 44
-8.6347189 36.499012 5.940443 44
-8.5328255 36.63858 5.9582767 36
-8.5019665 37.091747 6.0271082 45
-8.3585873 37.089897 6.0217891 45
-8.2235003 37.093781 6.0177217 45
-8.0876637 37.093304 6.0130291 45
-7.9556403 37.109722 6.0111518 45
-7.8231931 37.123737 6.0089617 45
-7.686758 37.117935 6.0036426 45
-7.5608764 37.129669 6.0014524 45
-7.429276 37.146149 5.9998879 45
-7.2953873 37.150532 5.9964466 45
-7.164906 37.171898 5.995821 45
-7.0288577 37.163689 5.9905024 45
-6.8958716 37.170509 5.9876862 45
-6.7643027 37.184639 5.9861221 45
-6.6313505 37.190525 5.9833059 45
-6.5052528 37.196743 5.9808035 45
-6.3703775 37.190022 5.9761105 45
-6.2317328 37.199482 5.9739203 45
-6.1021538 37.222961 5.9742332 45
-5.9265466 36.959259 5.9285541 26
-5.7460885 36.651863 5.8759918 43
-5.6089311 36.569187 5.8597226 43
-5.3691826 35.840317 5.7398939 57
-5.3472228 36.564449 5.8528399 43
-5.2240114 36.614185 5.8578458 43
-5.1062508 36.704586 5.8694215 43
-4.9995809 36.880745 5.8947644 26
-4.9287291 37.336647 5.9648466 45
-4.8159781 37.490776 5.9867473 45
-4.6841097 37.499516 5.985496 45
-4.5541439 37.523483 5.9867473 45
-4.4210443 37.521496 5.983932 54
-4.288929 37.526886 5.9823675 54
-4.1565952 37.52985 5.9804907 45
-4.025135 37.540203 5.9798646 45
-3.8942997 37.555984 5.9801774 45
-3.7619905 37.55756 5.9783006 45
-3.6291647 37.552765 5.9754844 45
-3.4978657 37.563236 5.9751716 45
-3.3748791 37.592335 5.9779873 45
-3.2429481 37.59602 5.9767356 45
-3.1051204 37.607651 5.9767356 45
-2.9726069 37.602509 5.9742332 45
-2.8419168 37.620533 5.9754844 45
-2.7097175 37.618404 5.9736071 45
-2.5711038 37.52121 5.9567122 45
-2.4178042 37.186966 5.9022732 17
-2.2675114 36.861969 5.8493981 34
-2.1346974 36.798672 5.8381352 43
-2.004288 36.77039 5.8325028 51
-1.8759307 36.777161 5.8325028 51
-1.7554584 36.814754 5.8375092 51
-1.6293894 36.875912 5.8462696 43
-1.508135 37.06493 5.8753667 25
-1.3941531 37.484512 5.9410686 44
-1.2637551 37.502972 5.9432588 44
-1.1329051 37.509129 5.943572 44
-1.0015877 37.499035 5.9413819 44
-0.87112391 37.520069 5.9441972 44
-0.74676645 37.526707 5.9448233 44
-0.61595356 37.540932 5.9467001 44
-0.48478788 37.532978 5.9451361 44
-0.3539086 37.548271 5.9473262 44
-0.21627533 37.549316 5.9473262 44
-0.085246228 37.573547 5.9510808 44
0.032798 37.58548 5.9529576 44
0.16400562 37.585136 5.9529576 44
0.29520643 37.588287 5.9535837 44
0.42646706 37.590977 5.9542089 44
0.55804312 37.612961 5.9579639 45
0.68954283 37.622639 5.9598413 45
0.82772768 37.633678 5.9620314 45
0.95924968 37.636482 5.9629693 45
1.0811306 37.305134 5.9110336 26
1.2047315 37.097771 5.878808 43
1.3252648 37.024483 5.8678575 51
1.4521021 36.958439 5.8581586 51
1.5812635 36.957096 5.8587847 51
1.7125512 37.000679 5.8666062 43
1.839833 37.087524 5.8813105 43
1.9815485 37.311672 5.9179163 26
2.1380072 37.768002 5.9914408 54
2.2725651 37.805656 5.9986367 45
2.4059968 37.821156 6.0023913 45
2.5390708 37.828289 6.0048943 45
2.6790884 37.838436 6.0080228 45
2.8120413 37.840675 6.0099001 45
2.9447179 37.838505 6.0111518 45
3.0777519 37.839806 6.0130291 45
3.1986024 37.853573 6.0167832 45
3.3331516 37.869728 6.0211635 45
3.4674735 37.881462 6.0249176 45
3.6019371 37.892731 6.0286722 45
3.7355518 37.893681 6.0308623 45
3.8711882 37.913826 6.036181 46
4.0043483 37.907936 6.0374327 46
4.1392112 37.91729 6.0411868 46
4.2742071 37.92617 6.0449414 46
4.4090872 37.932598 6.0483828 46
4.5466299 37.960125 6.0552659 46
4.6832099 37.977356 6.0605845 46
4.8199649 37.994091 6.0659032 46
4.9564028 38.00642 6.0705967 46
5.0921965 38.012379 6.0743508 46
5.2288814 38.023724 6.0790439 46
5.3665552 38.040451 6.0846758 46
5.5040884 38.054722 6.0899944 46
5.6389279 38.048954 6.0921841 46
5.7746844 38.048573 6.0953131 37
