# .PCD v0.7 - Point Cloud Data file format
VERSION 0.7
FIELDS x y z
SIZE 4 4 4
TYPE F F F
COUNT 1 1 1
WIDTH 216
HEIGHT 1
VIEWPOINT 0 0 0 1 0 0 0
POINTS 216
DATA ascii
2.8211272 1.8062692 -0.8975845
2.8469822 1.8088417 -0.90379614
2.8369367 1.7885906 -0.89861977
2.8592288 1.789421 -0.90379614
2.8556104 1.7733153 -0.90069032
2.8779211 1.7739723 -0.90586674
2.8742073 1.7578685 -0.90276086
2.8869324 1.7518328 -0.90483141
2.8897183 1.7397541 -0.90379614
2.899091 1.7316369 -0.90483141
2.8984709 1.7175665 -0.90276086
2.9111094 1.7113552 -0.90483141
2.9170659 1.7011824 -0.90483141
2.9196417 1.6890554 -0.90379614
2.9255204 1.6788529 -0.90379614
2.9447937 1.6762768 -0.90793723
2.9469719 1.6646028 -0.90690196
2.9457345 1.6510434 -0.90483141
2.9514802 1.6407501 -0.90483141
2.950423 1.6267058 -0.90276086
2.9631455 1.6195877 -0.90483141
2.9826498 1.6160797 -0.9089725
2.9641707 1.5933737 -0.90172559
2.9796655 1.58899 -0.90483141
2.9851944 1.5785786 -0.90483141
2.9872644 1.5663551 -0.90379614
3.0029986 1.5612642 -0.90690196
2.9912584 1.5419214 -0.90172559
3.0000634 1.5332282 -0.90276086
3.0051308 1.5232717 -0.90276086
3.0138824 1.5145065 -0.90379614
3.0156922 1.5022548 -0.90276086
3.0174534 1.4900074 -0.90172559
3.0156944 1.4760703 -0.89965498
3.0382102 1.473966 -0.90483141
3.0503013 1.4666997 -0.90690196
3.055402 1.4560437 -0.90690196
3.056973 1.4437189 -0.90586674
3.0549946 1.4297643 -0.90379614
3.0774927 1.4272186 -0.9089725
3.0719235 1.4116282 -0.90586674
3.0873806 1.4057002 -0.9089725
3.0817037 1.3901477 -0.90586674
3.0865369 1.3793827 -0.90586674
3.0878003 1.3670353 -0.90483141
3.0958548 1.3583415 -0.90586674
3.1041205 1.3490672 -0.90690196
3.1159089 1.3412781 -0.9089725
3.1170177 1.3288772 -0.90793723
3.1038399 1.3104752 -0.90276086
3.122654 1.305595 -0.90690196
3.1450412 1.3020774 -0.91207838
3.1281178 1.2822976 -0.90586674
3.1254146 1.2684636 -0.90379614
3.1369936 1.260428 -0.90586674
3.1485546 1.2523251 -0.90793723
3.1600964 1.2441601 -0.91000783
3.1462059 1.2266555 -0.90483141
3.1468644 1.2142739 -0.90379614
3.1657324 1.2082436 -0.90793723
3.1627021 1.1944548 -0.90586674
3.1738834 1.1866671 -0.90793723
3.1780059 1.1755816 -0.90793723
3.167577 1.1591691 -0.90379614
3.2006683 1.1586252 -0.91207838
3.1865051 1.1409342 -0.90690196
3.1941106 1.1310931 -0.90793723
3.1870987 1.1161078 -0.90483141
3.1909757 1.1049752 -0.90483141
3.2021246 1.0963322 -0.90690196
3.2095914 1.0863873 -0.90793723
3.2170284 1.0764023 -0.9089725
3.1912353 1.0560185 -0.90069032
3.2240965 1.0550424 -0.9089725
3.2205887 1.0408428 -0.90690196
3.2205217 1.0284199 -0.90586674
3.2314613 1.0194958 -0.90793723
3.2202458 1.0036105 -0.90379614
3.234807 0.99577612 -0.90690196
3.2382634 0.98447752 -0.90690196
3.2416799 0.97316861 -0.90690196
3.2450573 0.96184623 -0.90690196
3.2372706 0.94725692 -0.90379614
3.2591169 0.9413138 -0.9089725
3.251236 0.92675334 -0.90586674
3.2581704 0.91644561 -0.90690196
3.2650726 0.90609908 -0.90793723
3.2682159 0.89469546 -0.90793723
3.2637048 0.8818379 -0.90586674
3.2554116 0.86802298 -0.90276086
3.2696316 0.85960203 -0.90586674
3.2875731 0.8520602 -0.91000783
3.2719553 0.83522737 -0.90483141
3.286092 0.82662791 -0.90793723
3.292707 0.81608403 -0.9089725
3.287889 0.80332553 -0.90690196
3.2944298 0.79274678 -0.90793723
3.2934172 0.78035218 -0.90690196
3.2885952 0.76709652 -0.90483141
3.2950191 0.75647628 -0.90586674
3.2901018 0.74326771 -0.90379614
3.3153067 0.73680717 -0.91000783
3.3027599 0.72193056 -0.90586674
3.3128147 0.71202022 -0.90793723
3.3190606 0.70124984 -0.9089725
3.3138013 0.6886695 -0.90690196
3.3199708 0.67787004 -0.90793723
3.3261054 0.66703588 -0.9089725
3.3094587 0.65168977 -0.90379614
3.3230939 0.6423341 -0.90690196
3.3329077 0.63217115 -0.9089725
3.3311872 0.62040699 -0.90793723
3.322036 0.60611206 -0.90483141
3.3317382 0.59587353 -0.90690196
3.3376038 0.58490592 -0.90793723
3.339525 0.57383549 -0.90793723
3.3567483 0.5647397 -0.91207838
3.3320124 0.5486241 -0.90483141
3.3415368 0.53821784 -0.90690196
3.3433948 0.52655268 -0.90690196
3.3566687 0.51664126 -0.91000783
3.3660929 0.50607067 -0.91207838
3.3563709 0.49263358 -0.9089725
3.3465962 0.47927058 -0.90586674
3.3597283 0.4691897 -0.9089725
3.3613458 0.45745832 -0.9089725
3.3743346 0.44783485 -0.91207838
3.3528106 0.43366802 -0.90586674
3.3658781 0.42282188 -0.9089725
3.3519921 0.40919974 -0.90483141
3.3688176 0.39872542 -0.9089725
3.3738921 0.38858274 -0.91000783
3.3714533 0.3757869 -0.9089725
3.3612206 0.36277136 -0.90586674
3.370152 0.35183939 -0.90793723
3.3790481 0.34084785 -0.91000783
3.3802173 0.32905141 -0.91000783
3.3736515 0.3165291 -0.90793723
3.3708878 0.30440256 -0.90690196
3.3719299 0.29263481 -0.90690196
3.3844821 0.28182375 -0.91000783
3.3969519 0.27152309 -0.91311359
3.3940268 0.25936854 -0.91207838
3.3794973 0.2463965 -0.90793723
3.3726285 0.23406246 -0.90586674
3.3965566 0.22381334 -0.91207838
3.393461 0.21171591 -0.91104311
3.3787513 0.19895983 -0.90690196
3.3909986 0.18780626 -0.91000783
3.3916337 0.17596743 -0.91000783
3.3960862 0.16431478 -0.91104311
3.3927794 0.15228507 -0.91000783
3.3894298 0.14028046 -0.9089725
3.4014816 0.12888952 -0.91207838
3.3980494 0.11688162 -0.91104311
3.4138844 0.10549758 -0.9151842
3.406507 0.093367621 -0.91311359
3.3990729 0.081885301 -0.91104311
3.3916123 0.069861405 -0.9089725
3.403425 0.058219388 -0.91207838
3.4074705 0.046390556 -0.91311359
3.4114749 0.03453581 -0.91414887
3.3999841 0.022549547 -0.91104311
3.3961768 0.011262536 -0.91000783
3.4077864 -0.00059477089 -0.91311359
3.4154911 -0.012518484 -0.9151842
3.4154265 -0.024440698 -0.9151842
3.4075933 -0.036280341 -0.91311359
3.3997192 -0.048065599 -0.91104311
3.4072568 -0.060068756 -0.91311359
3.4031637 -0.071880341 -0.91207838
3.4144797 -0.084044382 -0.9151842
3.4103031 -0.095854074 -0.91414887
3.3983626 -0.10739156 -0.91104311
3.4056895 -0.11952444 -0.91311359
3.4091353 -0.13096577 -0.91414887
3.412518 -0.14302686 -0.9151842
3.4042783 -0.15458737 -0.91311359
3.403718 -0.16646957 -0.91311359
3.4108953 -0.17756358 -0.9151842
3.4102218 -0.19006392 -0.9151842
3.4133942 -0.20219512 -0.91621947
3.3933871 -0.21289921 -0.91104311
3.3964787 -0.22499844 -0.91207838
3.3956726 -0.236853 -0.91207838
3.4064286 -0.24895701 -0.9151842
3.4093456 -0.26173627 -0.91621947
3.4045599 -0.27332634 -0.9151842
3.4036348 -0.28461477 -0.9151842
3.4026723 -0.29590005 -0.9151842
3.4092605 -0.3090671 -0.91725475
3.4120076 -0.32132807 -0.91829002
3.4108653 -0.33323625 -0.91829002
3.4058371 -0.34475121 -0.91725475
3.4084558 -0.35704026 -0.91829002
3.4110944 -0.36875641 -0.91932529
3.4135597 -0.38168553 -0.92036057
3.3968537 -0.39182779 -0.91621947
3.3916285 -0.40322652 -0.9151842
3.401778 -0.41587791 -0.91829002
3.4041393 -0.4282321 -0.91932529
3.4026237 -0.44011208 -0.91932529
3.3895767 -0.45045981 -0.91621947
3.3918922 -0.46221924 -0.91725475
3.3902581 -0.47405633 -0.91725475
3.4077058 -0.4886297 -0.92243111
3.3945117 -0.49883658 -0.91932529
3.373646 -0.50780708 -0.91414887
3.3909464 -0.52252245 -0.91932529
3.3814685 -0.53315234 -0.91725475
3.3871205 -0.54677397 -0.91932529
3.3813789 -0.5579648 -0.91829002
3.3794107 -0.56976461 -0.91829002
3.3660796 -0.57900316 -0.9151842
3.383065 -0.59409076 -0.92036057
3.3810766 -0.60530603 -0.92036057
