# .PCD v0.7 - Point Cloud Data file format
VERSION 0.7
FIELDS x y z
SIZE 4 4 4
TYPE F F F
COUNT 1 1 1
WIDTH 76
HEIGHT 1
VIEWPOINT 0 0 0 1 0 0 0
POINTS 76
DATA ascii
6.6530352 -2.0913126 1.8686736
6.6493764 -2.1156948 1.8697089
6.6585007 -2.1442223 1.8743677
6.6840367 -2.1782258 1.8836851
6.6910701 -2.2063842 1.8878261
6.7089834 -2.238286 1.8950732
6.7047906 -2.2629266 1.8961084
6.722446 -2.2950556 1.9033554
6.7308283 -2.3241818 1.9080141
6.759151 -2.3604012 1.9183668
6.8128052 -2.4058518 1.9359666
6.8189201 -2.4348156 1.9401076
6.8326149 -2.4652827 1.9463193
6.8530059 -2.4997096 1.9546015
6.8514891 -2.5262895 1.9566721
6.8788333 -2.563683 1.9670248
6.9168468 -2.6053843 1.9804834
6.9943724 -2.6625018 2.0053301
6.9994602 -2.6924491 2.0094712
6.9053898 -2.6839719 1.9851422
6.9067678 -2.7122965 1.988248
6.9026451 -2.7385263 1.9898008
6.8786983 -2.756855 1.9856598
6.8403821 -2.7692504 1.9773775
6.8186445 -2.7868028 1.9737542
6.7820888 -2.7995307 1.9659895
6.749095 -2.813524 1.9592602
6.7018423 -2.8213253 1.9483899
6.6848416 -2.8416786 1.9463193
6.6464777 -2.8528042 1.9380372
6.6187539 -2.8683062 1.9328607
6.5839233 -2.8805516 1.9256139
6.5420184 -2.8894668 1.9162962
6.5248356 -2.9091382 1.9142257
6.486454 -2.9192111 1.9059435
6.4551177 -2.9322476 1.8997319
6.4237704 -2.9451008 1.8935202
6.388905 -2.9561491 1.8862734
6.3685637 -2.9724166 1.8831675
6.3336811 -2.9831047 1.8759204
6.3057809 -2.9969029 1.8707441
6.2674112 -3.0055306 1.862462
6.2325358 -3.01561 1.855215
6.2046108 -3.0288723 1.8500385
6.1801357 -3.043684 1.8458976
6.1590934 -3.0600805 1.8427917
6.1241956 -3.069443 1.8355448
6.0927553 -3.0803418 1.8293331
6.0687375 -3.0935106 1.825192
6.0441575 -3.1076086 1.8210509
6.0126939 -3.1180158 1.8148392
5.977807 -3.1264503 1.8075923
5.9463525 -3.1364825 1.8013806
5.9217234 -3.1499619 1.7972395
5.8970733 -3.1633079 1.7930984
5.8729553 -3.1754951 1.7889572
5.8448739 -3.1867285 1.7837809
5.816227 -3.1988201 1.7786045
5.7774353 -3.2051213 1.7703223
5.7628403 -3.2233829 1.7692871
5.738091 -3.2358878 1.7651459
5.6998906 -3.2406206 1.7568637
5.6723504 -3.2499006 1.7516873
5.6475887 -3.2619514 1.7475463
5.6228127 -3.273869 1.7434052
5.6063523 -3.2905428 1.7418523
5.5732174 -3.2973046 1.735123
5.5467405 -3.3078334 1.7304642
5.5235701 -3.3202081 1.7268407
5.5086422 -3.3374662 1.7258054
5.4821196 -3.3476138 1.7211467
5.4506583 -3.3545787 1.7149351
5.4148765 -3.3573654 1.7071705
5.3949327 -3.3711281 1.7045823
5.366785 -3.3796451 1.6994059
5.3631105 -3.403533 1.7019941
