# .PCD v0.7 - Point Cloud Data file format
VERSION 0.7
FIELDS x y z intensity
SIZE 4 4 4 4
TYPE F F F F
COUNT 1 1 1 1
WIDTH 87
HEIGHT 1
VIEWPOINT 0 0 0 1 0 0 0
POINTS 87
DATA ascii
-6.4832931 2.0434957 -4.0161572 15.133818
-6.1626539 1.9255579 -3.6965482 15.133454
-5.8425455 1.8101834 -3.3917897 15.133091
-5.5920544 1.7184722 -3.1402361 15.132728
-5.3060241 1.6177373 -2.8805141 15.132363
-5.1052079 1.5446678 -2.6776166 15.132
-4.9137626 1.4758158 -2.4881935 15.131637
-4.7178941 1.4069357 -2.3047769 15.131272
-4.5477533 1.3469183 -2.1415911 15.130909
-4.3994603 1.2944067 -1.9953372 15.130546
-4.2240934 1.234921 -1.8433731 15.130181
-4.1262217 1.1989425 -1.7307907 15.129818
-4.0074768 1.1576084 -1.6139312 15.129455
-3.8432629 1.1039233 -1.484231 15.129091
-3.8074355 1.0877317 -1.4081136 15.128727
-3.6823702 1.0465699 -1.3022593 15.128364
-3.590498 1.0154234 -1.2122403 15.128
-3.4893787 0.98218066 -1.1227292 15.127636
-3.4231849 0.95922965 -1.0476086 15.127273
-3.3212528 0.92670268 -0.96464974 15.126909
-3.2371016 0.89957535 -0.89017338 15.126545
-3.2127683 0.88940394 -0.8342126 15.126182
-3.1450572 0.86752415 -0.76875728 15.125818
-3.0647123 0.84250098 -0.70279282 15.125455
-2.9857481 0.81819189 -0.63984829 15.125091
-2.9519856 0.80654877 -0.58855456 15.124727
-2.8790696 0.78446841 -0.53129125 15.124364
-2.8301473 0.76918566 -0.48048499 15.124
-2.7995541 0.75910425 -0.4341647 15.123636
-2.7089136 0.73297507 -0.38048932 15.123273
-2.6666536 0.72016644 -0.3357096 15.122909
-2.6585345 0.71675581 -0.29610109 15.122545
-2.6048148 0.70122671 -0.2524316 15.122182
-2.5429764 0.68370134 -0.20974912 15.121819
-2.488095 0.66822565 -0.16940916 15.121454
-2.4608309 0.66032743 -0.13220094 15.121091
-2.4249744 0.65027249 -0.095491461 15.120728
-2.4078009 0.64536971 -0.060317233 15.120363
-2.3566277 0.6314919 -0.025294742 15.12
-2.3243568 0.62281257 0.0083199488 15.119637
-2.2840679 0.61211115 0.040870745 15.119272
-2.2634761 0.60681033 0.072919138 15.118909
-2.2098808 0.59277606 0.102871 15.118546
-2.1866789 0.58700365 0.13317862 15.118182
-2.1785986 0.58540475 0.16401276 15.117818
-2.1069 0.56680757 0.18897569 15.117455
-2.1049845 0.56707835 0.21921495 15.117091
-2.1008408 0.56686497 0.24922521 15.116727
-2.058718 0.55650091 0.27416104 15.116364
-2.0503917 0.55536556 0.30297795 15.116
-1.997568 0.54226017 0.32445073 15.115636
-1.984093 0.53991258 0.35147843 15.115273
-1.9655761 0.53628838 0.37728906 15.114909
-1.9504212 0.53367424 0.40340573 15.114546
-1.8861212 0.51766586 0.41834193 15.114182
-1.9058776 0.52480793 0.45143679 15.113818
-1.8466344 0.51027668 0.46541378 15.113455
-1.832042 0.5081293 0.48972553 15.113091
-1.7987111 0.50085217 0.50850725 15.112727
-1.7806811 0.49789727 0.53104663 15.112364
-1.7708945 0.49733451 0.55584836 15.112
-1.7395462 0.49078569 0.57348412 15.111636
-1.7169549 0.48675844 0.59341216 15.111273
-1.7046043 0.48570934 0.61659259 15.110909
-1.6931018 0.4849923 0.63997954 15.110545
-1.6562508 0.47706595 0.6532914 15.110182
-1.6332792 0.47316882 0.67139894 15.109818
-1.6252984 0.47369215 0.69547397 15.109454
-1.6040776 0.47043654 0.71372479 15.109091
-1.57376 0.46455103 0.72739369 15.108727
-1.567058 0.46570098 0.75169897 15.108363
-1.5196015 0.45476648 0.75587529 15.108
-1.518458 0.45772976 0.78261292 15.107636
-1.4943354 0.45385244 0.79745221 15.107273
-1.471186 0.45030698 0.81236136 15.106909
-1.4716136 0.45407283 0.84030282 15.106545
-1.4500487 0.451152 0.85573828 15.106182
-1.4271317 0.44785035 0.86998999 15.105818
-1.3779796 0.43627691 0.86731803 15.105454
-1.380489 0.44108999 0.89673579 15.105091
-1.3673993 0.44105315 0.91632497 15.104727
-1.3909768 0.45304954 0.9612546 15.104363
-1.3575273 0.44661784 0.96713614 15.104
-1.3294748 0.44194016 0.97613418 15.103637
-1.3300184 0.44686237 1.0061444 15.103272
-1.2980026 0.44092461 1.0114557 15.102909
-1.3361213 0.45903978 1.0722432 15.102546
