# .PCD v0.7 - Point Cloud Data file format
VERSION 0.7
FIELDS x y z
SIZE 4 4 4
TYPE F F F
COUNT 1 1 1
WIDTH 97
HEIGHT 1
VIEWPOINT 0 0 0 1 0 0 0
POINTS 97
DATA ascii
0.1683498 -9.8830986 1.9213555
0.22036761 -9.8923807 1.9233582
0.27177393 -9.8754663 1.9203202
0.32342929 -9.8711119 1.9197766
0.37602371 -9.8921957 1.9242339
0.4281109 -9.8959608 1.9253762
0.47942629 -9.8825169 1.9232229
0.53075826 -9.8715162 1.921597
0.58271235 -9.8725195 1.9223604
0.63511354 -9.8798151 1.9244025
0.6873976 -9.8838186 1.9258575
0.74025828 -9.8944588 1.9286602
0.79096955 -9.8763494 1.9259117
0.84505826 -9.8995314 1.9312694
0.89677751 -9.8933573 1.9309551
0.94801193 -9.8822908 1.9297384
1.0009432 -9.8886261 1.9319732
1.0540915 -9.8958473 1.9344367
1.1071312 -9.9008904 1.93653
1.1598681 -9.9023657 1.9379809
1.2129359 -9.9058867 1.9398873
1.267309 -9.9188013 1.9436902
1.31742 -9.8981304 1.9409658
1.3694216 -9.8921757 1.9411787
1.4228749 -9.8962278 1.9434104
1.4763914 -9.8998775 1.9456197
1.527774 -9.8889256 1.945014
1.583868 -9.9076433 1.9503013
1.6374696 -9.9095192 1.952333
1.6891832 -9.8996716 1.9521101
1.7396171 -9.8826141 1.9505173
1.7961836 -9.8998308 1.9557462
1.8479997 -9.8900805 1.9557064
1.9032383 -9.8981342 1.9592443
1.9594712 -9.9102249 1.9636432
2.0084462 -9.885396 1.9607819
2.0648401 -9.8968735 1.9651778
2.1173198 -9.8889303 1.9657768
2.175597 -9.9072304 1.9716538
2.2272937 -9.8948469 1.9714851
2.2801642 -9.8875875 1.9723924
2.3390744 -9.9056854 1.9784207
2.3890619 -9.8854742 1.9768573
2.4458337 -9.8930492 1.9809082
2.5030229 -9.9013796 1.9851751
2.5573864 -9.8978462 1.9871266
2.6122088 -9.8956337 1.9894034
2.6696749 -9.90275 1.9936192
2.7271302 -9.9089661 1.9977201
2.7825847 -9.9072342 2.0002835
2.8411345 -9.9157991 2.0049913
2.8959858 -9.9107962 2.0070205
2.9492042 -9.8999224 2.0079207
3.0078514 -9.9067583 2.0124764
3.0662944 -9.912097 2.0167975
3.1228755 -9.9107466 2.0198247
3.1752183 -9.895648 2.0201113
3.2343411 -9.9012518 2.0246873
3.2966001 -9.9155006 2.0311058
3.346987 -9.8935709 2.0301788
3.4113197 -9.9123144 2.0376651
3.4732416 -9.9229422 2.0435636
3.5255697 -9.9056625 2.0437818
3.5910137 -9.924593 2.051542
3.6470213 -9.916647 2.053822
3.7105536 -9.9284811 2.0602717
3.7668848 -9.9203653 2.0626557
3.8308616 -9.9317102 2.0691602
3.8829622 -9.9117746 2.0692177
3.9444652 -9.9154615 2.0742741
4.0046792 -9.915225 2.0785863
4.0690036 -9.9243965 2.0849504
4.1308603 -9.9267406 2.089962
4.1859756 -9.9124222 2.091537
4.2452745 -9.907649 2.0951953
4.3118415 -9.919096 2.1023657
4.3764124 -9.9250555 2.1084607
4.4345322 -9.9157791 2.111398
4.4980283 -9.9179726 2.1168549
4.5596938 -9.9154749 2.1213927
4.629302 -9.9294329 2.12954
4.6920414 -9.927824 2.134439
4.7533069 -9.9225235 2.1386254
4.8182702 -9.9243193 2.1444252
4.877193 -9.913125 2.1474996
4.9484072 -9.9262133 2.1559227
5.0056243 -9.9105759 2.1581941
5.0768747 -9.9220934 2.1664662
5.1393771 -9.91576 2.1709342
5.2120051 -9.9281931 2.179606
5.2825952 -9.935792 2.1873217
5.3407331 -9.919385 2.189841
5.4118142 -9.9264297 2.1976268
5.4858136 -9.9378891 2.2064984
5.5481257 -9.927453 2.2106061
5.6215477 -9.9362001 2.2190833
5.6887107 -9.9330959 2.2250173
