# .PCD v0.7 - Point Cloud Data file format
VERSION 0.7
FIELDS x y z
SIZE 4 4 4
TYPE F F F
COUNT 1 1 1
WIDTH 174
HEIGHT 1
VIEWPOINT 0 0 0 1 0 0 0
POINTS 174
DATA ascii
0.75192708 -0.62182724 -0.18966414
0.74070066 -0.61690956 -0.18737444
0.74155104 -0.6220147 -0.18813768
0.73637581 -0.62206548 -0.18737444
0.73868585 -0.62844867 -0.1885193
0.7276513 -0.62323207 -0.1862296
0.71952492 -0.62063909 -0.18470311
0.72180045 -0.62700933 -0.18584797
0.72108501 -0.63081771 -0.1862296
0.7217139 -0.63605249 -0.18699282
0.70627415 -0.6268391 -0.18355827
0.70565563 -0.63048577 -0.18393987
0.70479923 -0.63438129 -0.18432149
0.70694435 -0.6407932 -0.18546635
0.70760334 -0.64590418 -0.1862296
0.69100147 -0.63496333 -0.1824134
0.69166273 -0.64003837 -0.18317664
0.68942434 -0.64244878 -0.18317664
0.69290406 -0.65022522 -0.18470311
0.68777633 -0.64994305 -0.18393987
0.67697012 -0.64421946 -0.18165016
0.67329979 -0.64522028 -0.18126856
0.67245615 -0.64892989 -0.18165016
0.67300278 -0.65400964 -0.1824134
0.67211896 -0.65772802 -0.18279503
0.65723366 -0.64766806 -0.17936046
0.65636241 -0.65134108 -0.17974208
0.6568622 -0.65640378 -0.18050532
0.65468186 -0.6585784 -0.18050532
0.66077125 -0.66912735 -0.18279503
0.64743477 -0.66021585 -0.17974208
0.64512622 -0.66247183 -0.17974208
0.64144516 -0.6633085 -0.17936046
0.64320534 -0.66979158 -0.18050532
0.63950849 -0.67061204 -0.1801237
0.63311398 -0.6685636 -0.17897885
0.62808651 -0.66790909 -0.17821561
0.62843108 -0.67296726 -0.17897885
0.62741315 -0.6765964 -0.17936046
0.6277073 -0.68167084 -0.1801237
0.61605018 -0.67371577 -0.17745239
0.6123749 -0.67440861 -0.17707075
0.61396104 -0.68091631 -0.17821561
0.61562932 -0.68733579 -0.17936046
0.61571491 -0.69252205 -0.1801237
0.61329389 -0.69466698 -0.1801237
0.61474782 -0.70123237 -0.18126856
0.62402278 -0.71659219 -0.18470311
0.62922239 -0.72767633 -0.18699282
0.63691002 -0.74178457 -0.19004577
0.63304305 -0.74250925 -0.18966414
0.64059538 -0.75670183 -0.19271709
0.64300317 -0.76494467 -0.19424357
0.64536113 -0.77321345 -0.19577004
0.66019666 -0.79662418 -0.20111269
0.65741193 -0.79892385 -0.20111269
0.66704071 -0.81641704 -0.20492886
0.6691342 -0.82483912 -0.20645534
0.67364007 -0.83634365 -0.20874506
0.68543071 -0.85708898 -0.21332446
0.67999309 -0.85640138 -0.21256123
0.68429214 -0.86802042 -0.21485093
0.68972844 -0.88122576 -0.21752228
0.69869459 -0.89913028 -0.22133845
0.70994246 -0.92021674 -0.22591786
0.71046925 -0.92724109 -0.22706272
0.71554857 -0.94065332 -0.22973405
0.7240923 -0.95881212 -0.23355024
0.73487312 -0.98018348 -0.23812963
0.7408247 -0.99534208 -0.24118258
0.74434596 -1.0073959 -0.24347228
0.74895316 -1.0210694 -0.24614362
0.7615633 -1.0458969 -0.25148627
0.76940864 -1.06446 -0.25530246
0.78285611 -1.0910661 -0.26102671
0.78587669 -1.1033869 -0.26331642
0.78768712 -1.1141387 -0.26522452
0.8052206 -1.1474149 -0.27247527
0.81243193 -1.1663283 -0.27629143
0.83312935 -1.2045385 -0.28468704
0.83447534 -1.2155321 -0.28659514
0.83686024 -1.2281722 -0.28888482
0.85324448 -1.2621338 -0.29613557
0.86524135 -1.2895589 -0.30185983
0.87705719 -1.3170828 -0.30758414
0.89000857 -1.3461871 -0.31369001
0.89499706 -1.3640587 -0.31712458
0.91379833 -1.4033693 -0.32552016
0.92807364 -1.4362316 -0.3323893
0.94318998 -1.4708629 -0.33964002
0.96439964 -1.5155549 -0.34918046
0.98426032 -1.5587524 -0.35833931
0.99340677 -1.5854698 -0.36368197
0.99408603 -1.5989314 -0.36597168
0.99365246 -1.6107463 -0.36787975
0.98699892 -1.6125305 -0.36749816
0.97932607 -1.6126097 -0.36673489
0.97571748 -1.6193817 -0.36749816
0.97437251 -1.6293482 -0.36902463
0.9689641 -1.6325703 -0.36902463
0.95301527 -1.6191913 -0.36520842
0.94933754 -1.625899 -0.36597168
0.94365627 -1.6292028 -0.36597168
0.94383186 -1.6427007 -0.36826137
0.94003618 -1.6493967 -0.36902463
0.92557776 -1.6372862 -0.36559007
0.91889662 -1.6387947 -0.36520842
0.91221637 -1.6402766 -0.3648268
0.91312277 -1.6554843 -0.36749816
0.90574288 -1.6550587 -0.36673489
0.89405358 -1.6480134 -0.36444521
0.88829547 -1.6511241 -0.36444521
0.88067847 -1.6507505 -0.36368197
0.88225538 -1.6676977 -0.36673489
0.87825257 -1.6742443 -0.36749816
0.86696744 -1.6668494 -0.36520842
0.85783458 -1.6627361 -0.36368197
0.85381359 -1.6692162 -0.36444521
0.84946507 -1.6758366 -0.36520842
0.84537309 -1.6823 -0.36597168
0.83249253 -1.6711823 -0.36291873
0.82839257 -1.6775987 -0.36368197
0.82598394 -1.6875336 -0.36520842
0.82180238 -1.6939391 -0.36597168
0.81418264 -1.6932589 -0.36520842
0.80349368 -1.6853166 -0.36291873
0.79760605 -1.6881109 -0.36291873
0.79200363 -1.6907467 -0.36291873
0.78775018 -1.6970626 -0.36368197
0.78316516 -1.7035059 -0.36444521
0.77395844 -1.6990829 -0.36291873
0.76479256 -1.6946162 -0.36139226
0.76207811 -1.7044445 -0.36291873
0.75771374 -1.7106844 -0.36368197
0.7536152 -1.716783 -0.36444521
0.74635154 -1.7156721 -0.36368197
0.73850536 -1.7147899 -0.36291873
0.73251492 -1.7173573 -0.36291873
0.73109961 -1.7307549 -0.36520842
0.72656888 -1.7369188 -0.36597168
0.71449101 -1.7249337 -0.36291873
0.70697576 -1.7237844 -0.3621555
0.7053858 -1.7371559 -0.36444521
0.69785327 -1.7359644 -0.36368197
0.69469315 -1.7456862 -0.36520842
0.68715602 -1.7444474 -0.36444521
0.6767838 -1.7358605 -0.3621555
0.67354721 -1.7455387 -0.36368197
0.6688509 -1.7515473 -0.36444521
0.66273302 -1.7538714 -0.36444521
0.65523142 -1.7524964 -0.36368197
0.64941645 -1.7546594 -0.36368197
0.6432876 -1.7569157 -0.36368197
0.63879561 -1.7627308 -0.36444521
0.63497907 -1.7724533 -0.36597168
0.62354296 -1.7598547 -0.36291873
0.6173963 -1.7620205 -0.36291873
0.6112417 -1.7641649 -0.36291873
0.60762507 -1.7737169 -0.36444521
0.60646784 -1.7907033 -0.36749816
0.59273428 -1.770469 -0.36291873
0.58685988 -1.7724248 -0.36291873
0.58433306 -1.7856579 -0.36520842
0.57809615 -1.7876867 -0.36520842
0.57424277 -1.7971742 -0.36673489
0.56442004 -1.7879345 -0.36444521
0.55934423 -1.7936424 -0.36520842
0.55308002 -1.795584 -0.36520842
0.54826599 -1.8011644 -0.36597168
0.54342091 -1.8067328 -0.36673489
0.53232664 -1.7936555 -0.36368197
0.52606249 -1.7955027 -0.36368197
0.52306432 -1.8086439 -0.36597168
0.51652455 -1.8084807 -0.36559007
