# .PCD v0.7 - Point Cloud Data file format
VERSION 0.7
FIELDS x y z
SIZE 4 4 4
TYPE F F F
COUNT 1 1 1
WIDTH 141
HEIGHT 1
VIEWPOINT 0 0 0 1 0 0 0
POINTS 141
DATA ascii
0.89893949 -0.5922913 -0.056418166
0.86368775 -0.57318115 -0.054324731
0.86002135 -0.57508218 -0.054220054
0.85469598 -0.57584876 -0.054010712
0.8625955 -0.58555925 -0.054638743
0.84570926 -0.57841903 -0.053696696
0.83052814 -0.57230145 -0.052859318
0.84000993 -0.58317006 -0.053592026
0.83807147 -0.58595246 -0.053592026
0.83918345 -0.59132105 -0.053801365
0.82408535 -0.58499777 -0.052963994
0.814017 -0.58191973 -0.052440636
0.81684279 -0.58825916 -0.052754648
0.81640106 -0.59227973 -0.052859318
0.82400393 -0.60219669 -0.053487353
0.80259579 -0.59086025 -0.052231289
0.80052853 -0.59365815 -0.052231289
0.80175614 -0.59869969 -0.052440636
0.7996614 -0.60149473 -0.052440636
0.80381823 -0.60924721 -0.052859318
0.79216164 -0.60477751 -0.052231289
0.78065103 -0.60009766 -0.051603258
0.77855152 -0.60281903 -0.051603258
0.78589213 -0.61290246 -0.052231289
0.79003048 -0.62057704 -0.052649979
0.78002787 -0.61713487 -0.052126616
0.75912505 -0.60491771 -0.050870556
0.76178849 -0.61118126 -0.051184569
0.78139907 -0.63141078 -0.052649979
0.7791903 -0.63413453 -0.052649979
0.74916774 -0.61406064 -0.050765883
0.75164056 -0.6204865 -0.051079899
0.75100583 -0.62438321 -0.051184569
0.74575907 -0.6244365 -0.050975226
0.74052113 -0.62446082 -0.050765883
0.72931093 -0.61915743 -0.050137851
0.72714525 -0.62169939 -0.050137851
0.72788829 -0.62696731 -0.050347198
0.72267783 -0.62688684 -0.050137851
0.72951001 -0.63728958 -0.050765883
0.71828377 -0.6319167 -0.050137851
0.71319401 -0.63164675 -0.049928509
0.71098477 -0.63413244 -0.049928509
0.70865583 -0.63673401 -0.049928509
0.70939076 -0.64188391 -0.050137851
0.70124072 -0.63897544 -0.049719162
0.69017643 -0.63331711 -0.04909113
0.69676274 -0.64385533 -0.049719162
0.69158679 -0.64356238 -0.04950982
0.6923641 -0.64858311 -0.049719162
0.6813789 -0.64277285 -0.04909113
0.67924356 -0.64502889 -0.04909113
0.6798749 -0.65015668 -0.049300473
0.67748731 -0.65264422 -0.049300473
0.67520511 -0.65500504 -0.049300473
0.66994286 -0.65468359 -0.04909113
0.66776818 -0.6569016 -0.04909113
0.66547114 -0.65922856 -0.04909113
0.66599393 -0.66436857 -0.049300473
0.66367078 -0.66668928 -0.049300473
0.65291494 -0.66047955 -0.048672445
0.64792222 -0.65979099 -0.048463102
0.64840406 -0.66490847 -0.048672445
0.64897484 -0.66992408 -0.048881788
0.64940172 -0.67506403 -0.04909113
0.64140576 -0.67166197 -0.048672445
0.63355994 -0.66809982 -0.048253756
0.63396257 -0.67321533 -0.048463102
0.63160866 -0.67542416 -0.048463102
0.6348027 -0.68336827 -0.048881788
0.62699664 -0.67970771 -0.048463102
0.62045467 -0.67758214 -0.048149083
0.62077308 -0.6826992 -0.048358425
0.61315072 -0.6788255 -0.04793974
0.62144601 -0.69285619 -0.048777115
0.60972512 -0.68458092 -0.048044413
0.60600859 -0.68520904 -0.04793974
0.61942828 -0.70532864 -0.049195804
0.62090051 -0.71200246 -0.04950982
0.62756336 -0.72473449 -0.050242521
0.62763399 -0.72994947 -0.050451867
0.6224885 -0.72909796 -0.050242521
0.63672966 -0.75107157 -0.051603258
0.64182138 -0.76245737 -0.052231289
0.64684117 -0.77388787 -0.052859318
0.64413589 -0.77614099 -0.052859318
0.65158397 -0.79071558 -0.053696696
0.65907836 -0.80523652 -0.054534074
0.6638214 -0.81683195 -0.055162102
0.67099965 -0.83157897 -0.05599948
0.67433667 -0.84170979 -0.056522839
0.67263776 -0.84562153 -0.056627508
0.68206048 -0.86363828 -0.057674225
0.69136554 -0.88173115 -0.05872095
0.69809848 -0.89674699 -0.059558321
0.69740689 -0.90233898 -0.059767671
0.69911623 -0.91110599 -0.060186356
0.7057758 -0.92612779 -0.061023727
0.7231912 -0.9555366 -0.062803157
0.73184884 -0.97402281 -0.063849874
0.72605616 -0.97336966 -0.063640527
0.73674321 -0.99528784 -0.064896591
0.74272591 -1.0107291 -0.065733969
0.75313783 -1.0328096 -0.066990033
0.76394993 -1.0545801 -0.068246089
0.76259619 -1.0604835 -0.068455435
0.77977657 -1.0923997 -0.070339531
0.78962046 -1.1148083 -0.071595594
0.79950893 -1.1371641 -0.072851658
0.80373663 -1.1512727 -0.073584363
0.80446577 -1.1604974 -0.074003048
0.80380642 -1.1682347 -0.074317068
0.78845996 -1.1545399 -0.073270351
0.78218383 -1.1539786 -0.073060997
0.77703607 -1.1550448 -0.072956331
0.75949252 -1.1379501 -0.071700267
0.75330973 -1.1372641 -0.071490921
0.74933535 -1.1398867 -0.071490921
0.74316925 -1.13915 -0.071281582
0.73810291 -1.1400604 -0.071176901
0.73195976 -1.1392694 -0.070967562
0.71294647 -1.1182401 -0.06950216
0.70583522 -1.1156584 -0.06918814
0.71680355 -1.1417972 -0.070653543
0.7223177 -1.1595496 -0.071595594
0.71216613 -1.1517462 -0.070967562
0.70416397 -1.1472925 -0.070548877
0.69723821 -1.1445043 -0.070234857
0.69923598 -1.1573089 -0.070862897
0.69416493 -1.1580296 -0.070758224
0.69011843 -1.1604457 -0.070758224
0.68180221 -1.1560858 -0.070339531
0.68280542 -1.1670783 -0.070862897
0.67973006 -1.1711818 -0.070967562
0.68161672 -1.1839328 -0.071595594
0.67372376 -1.1792499 -0.071176901
0.67255747 -1.1868074 -0.071490921
0.67211652 -1.1962293 -0.071909614
0.67182577 -1.2055467 -0.072328299
0.67845535 -1.2269943 -0.07347969
0.69529599 -1.2678819 -0.07578247
