# .PCD v0.7 - Point Cloud Data file format
VERSION 0.7
FIELDS x y z
SIZE 4 4 4
TYPE F F F
COUNT 1 1 1
WIDTH 140
HEIGHT 1
VIEWPOINT 0 0 0 1 0 0 0
POINTS 140
DATA ascii
0.85208863 -0.56762815 0.017871264
0.84346062 -0.56614119 0.017731644
0.84138 -0.56922877 0.017731644
0.8494029 -0.57877189 0.017941073
0.8341887 -0.5726791 0.017661836
0.83218461 -0.57558751 0.017661836
0.82032645 -0.57162923 0.017452406
0.83141929 -0.58368111 0.017731644
0.82937676 -0.5865798 0.017731644
0.83394223 -0.59396726 0.017871264
0.8188659 -0.58754843 0.017592026
0.80384475 -0.58103174 0.017312787
0.80504483 -0.58618832 0.017382598
0.79976887 -0.58662945 0.017312787
0.80736607 -0.59654766 0.017522216
0.8020705 -0.59697425 0.017452406
0.78398216 -0.58777505 0.017103357
0.79469186 -0.60014904 0.017382598
0.80214137 -0.61018336 0.017592026
0.8001135 -0.61284006 0.017592026
0.77580363 -0.59852839 0.017103357
0.7738145 -0.60109782 0.017103357
0.77801132 -0.60872424 0.017242977
0.77274054 -0.60896081 0.017173167
0.77374274 -0.61414087 0.017242977
0.75285101 -0.60185409 0.016824121
0.76476365 -0.61576533 0.017138263
0.77669805 -0.62963128 0.017452406
0.75900555 -0.61969191 0.017103357
0.75055194 -0.61738831 0.016963739
0.74520463 -0.61758298 0.016893929
0.73393989 -0.61236423 0.016684501
0.73792171 -0.62006819 0.016824121
0.73269987 -0.62005669 0.016754311
0.73357487 -0.6252048 0.016824121
0.72835326 -0.62515676 0.016754311
0.72011518 -0.6224646 0.01661469
0.71492147 -0.62234855 0.016544882
0.71285373 -0.62471586 0.016544882
0.71966451 -0.63513964 0.016754311
0.70537633 -0.6271435 0.016475072
0.70329273 -0.62947917 0.016475072
0.70109117 -0.63193029 0.016475072
0.70184237 -0.63706177 0.016544882
0.69961441 -0.63950777 0.016544882
0.68866086 -0.63369989 0.016335452
0.68351108 -0.63338155 0.016265644
0.68129599 -0.63576359 0.016265644
0.6849016 -0.64361537 0.016405262
0.68846059 -0.65150011 0.016544882
0.67738366 -0.64574039 0.016335452
0.66946727 -0.64244479 0.016195834
0.67153466 -0.64894658 0.016300548
0.66639906 -0.64849752 0.016230738
0.67412901 -0.66061699 0.016475072
0.6604321 -0.6517294 0.016195834
0.65378439 -0.64991623 0.016091119
0.65162557 -0.65208071 0.016091119
0.65357113 -0.65860957 0.016195834
0.65267181 -0.66231132 0.016230738
0.64616001 -0.66029781 0.016126024
0.63688314 -0.65537888 0.015951499
0.6373688 -0.66047597 0.016021309
0.64474446 -0.67280316 0.016265644
0.64239204 -0.67504966 0.016265644
0.62904406 -0.66566074 0.015986405
0.62534821 -0.66639423 0.015951499
0.62029171 -0.66564709 0.015881689
0.62339705 -0.67367911 0.016021309
0.62792605 -0.68310374 0.016195834
0.61340445 -0.6719991 0.015881689
0.60568309 -0.66820973 0.015742071
0.60602254 -0.67329246 0.015811879
0.60633379 -0.67838567 0.015881689
0.60528952 -0.68199372 0.015916595
0.60951596 -0.69160354 0.016091119
0.60841513 -0.69523168 0.016126024
0.61516613 -0.70791715 0.016370358
0.6139977 -0.7115742 0.016405262
0.63115489 -0.73638105 0.016928835
0.6246925 -0.73401111 0.016824121
0.62470794 -0.73924202 0.016893929
0.63227516 -0.75378335 0.017173167
0.63745213 -0.76509392 0.017382598
0.64497495 -0.77964061 0.017661836
0.64746416 -0.78795528 0.017801456
0.64457178 -0.79032308 0.017801456
0.65453464 -0.80799448 0.018150503
0.65672332 -0.81650722 0.018290123
0.6650998 -0.83285791 0.018604266
0.66840041 -0.84300911 0.01877879
0.67534894 -0.85790718 0.019058026
0.6857425 -0.87771034 0.019441981
0.69125396 -0.89115912 0.019686313
0.70156014 -0.91099441 0.020070268
0.70201957 -0.91820341 0.020174982
0.70727324 -0.9317981 0.020419316
0.71982795 -0.95489705 0.020873079
0.72624475 -0.9700852 0.021152316
0.73955369 -0.99508393 0.021640982
0.73845017 -1.0008777 0.021710794
0.74558634 -1.0179687 0.022024937
0.75026006 -1.0318867 0.022269269
0.75835645 -1.0507139 0.022618318
0.7709893 -1.0761124 0.023106987
0.77534086 -1.0902044 0.023351319
0.78421646 -1.1108742 0.023735272
0.79774588 -1.1380304 0.024258846
0.80633175 -1.158864 0.024642797
0.81157774 -1.1746936 0.024922037
0.80048305 -1.1677638 0.024712607
0.78627813 -1.1556711 0.024398465
0.77420557 -1.1469431 0.02415413
0.76797134 -1.1463161 0.024084322
0.76285803 -1.1473246 0.024049416
0.75113881 -1.138297 0.023805084
0.73839653 -1.1275289 0.023525843
0.73901349 -1.1366773 0.023665464
0.73395705 -1.1375698 0.023630559
0.73213822 -1.1434928 0.023700368
0.7193656 -1.1326646 0.023421129
0.69427603 -1.1012124 0.022723034
0.7020942 -1.1222773 0.023106987
0.71419263 -1.1500812 0.023630559
0.71017373 -1.1525671 0.023630559
0.69988781 -1.1448025 0.023421129
0.69257689 -1.1422302 0.023316415
0.68981653 -1.1462339 0.023351319
0.69196188 -1.1589364 0.023560748
0.68995053 -1.1647859 0.023630559
0.68162537 -1.1604099 0.023490939
0.67656386 -1.1610545 0.023456035
0.67651004 -1.1703341 0.023595655
0.67341536 -1.1744231 0.023630559
0.67248404 -1.1818638 0.023735272
0.66245723 -1.1737552 0.023525843
0.66226315 -1.18304 0.023665464
0.66298294 -1.1940861 0.023839988
0.66363364 -1.2051513 0.024014512
0.67188299 -1.2302759 0.024468275
