# .PCD v0.7 - Point Cloud Data file format
VERSION 0.7
FIELDS x y z
SIZE 4 4 4
TYPE F F F
COUNT 1 1 1
WIDTH 160
HEIGHT 1
VIEWPOINT 0 0 0 1 0 0 0
POINTS 160
DATA ascii
0.16818772 -9.8735828 -0.51752687
0.2201079 -9.880722 -0.51795441
0.27215299 -9.8892412 -0.51846862
0.32404992 -9.8900537 -0.51859313
0.37612304 -9.8948088 -0.51893866
0.42766699 -9.8856993 -0.51857138
0.47942209 -9.8824301 -0.51852453
0.53194809 -9.8936462 -0.51925218
0.58329183 -9.8823385 -0.518812
0.63623703 -9.8972931 -0.51976496
0.68742132 -9.88416 -0.51925737
0.73992056 -9.889945 -0.51975781
0.79341561 -9.9068918 -0.52085984
0.84487927 -9.8974342 -0.52058822
0.89811963 -9.908164 -0.52139294
0.94764584 -9.8784752 -0.52008486
1.001556 -9.8946819 -0.52120727
1.0519534 -9.8757753 -0.52049464
1.1072289 -9.9017639 -0.52216297
1.1597583 -9.9014273 -0.52245855
1.2131412 -9.9075642 -0.52311057
1.2651376 -9.9018068 -0.52314949
1.3156544 -9.8848648 -0.5226115
1.366866 -9.8737144 -0.52239352
1.4224576 -9.8933249 -0.52381819
1.4742578 -9.8855715 -0.52380955
1.5281731 -9.8915091 -0.52454132
1.5830417 -9.9024744 -0.52555549
1.6337869 -9.8872328 -0.52519375
1.6881418 -9.893568 -0.52599299
1.7421385 -9.8969383 -0.52665025
1.7966049 -9.9021521 -0.52742153
1.8469602 -9.8845177 -0.52699053
1.9026176 -9.894906 -0.52806872
1.9586898 -9.9062738 -0.52921587
2.0111842 -9.8988714 -0.52937621
2.0657356 -9.9011641 -0.53007048
2.1191688 -9.8975658 -0.53046507
2.174803 -9.903614 -0.53139275
2.2240078 -9.880249 -0.53075713
2.2810035 -9.8912268 -0.53198165
2.3429058 -9.9219122 -0.53428501
2.3957615 -9.9131966 -0.53448445
2.4511797 -9.9146738 -0.53524929
2.5069706 -9.916995 -0.53607649
2.5607467 -9.9108515 -0.53646237
2.6130688 -9.8988924 -0.53654891
2.6649477 -9.8852167 -0.53655726
2.7243619 -9.8989077 -0.53806788
2.7850711 -9.9160872 -0.53978765
2.839711 -9.9108305 -0.54030412
2.8972316 -9.9150591 -0.54135495
2.9468582 -9.8920479 -0.54093426
3.0074987 -9.9055958 -0.54252952
3.0661137 -9.9115124 -0.54372615
3.1214788 -9.9063139 -0.54433084
3.1774609 -9.9026375 -0.54503626
3.2339575 -9.9000769 -0.54582065
3.2928214 -9.9041348 -0.54698819
3.3486066 -9.8983593 -0.54763085
3.415504 -9.9244728 -0.55005825
3.4647911 -9.8987989 -0.54963416
3.5251515 -9.9044876 -0.55096811
3.5925076 -9.9287214 -0.55335587
3.6426311 -9.9047098 -0.55307394
3.7063167 -9.9171438 -0.55484515
3.7599182 -9.9020185 -0.55509371
3.8230903 -9.9115639 -0.55674422
3.8811831 -9.9072332 -0.55763578
3.9530175 -9.9369602 -0.56046724
4.004168 -9.9139595 -0.56034583
4.0651364 -9.9149647 -0.56159896
4.1226339 -9.9069719 -0.56236225
4.1891022 -9.9198256 -0.56433028
4.25109 -9.9212217 -0.56566924
4.3177156 -9.9326086 -0.56760079
4.3710809 -9.9129639 -0.56777936
4.4316597 -9.9093561 -0.5688951
4.490768 -9.9019632 -0.56981391
4.5498562 -9.8940821 -0.57072455
4.5982275 -9.8627806 -0.57030112
4.6485548 -9.8358116 -0.57014245
4.6972456 -9.8054953 -0.56980419
4.7550716 -9.7941475 -0.57058495
4.7979803 -9.7521219 -0.56959361
4.8406172 -9.7099915 -0.56860667
4.902854 -9.7071028 -0.56993419
4.9572935 -9.6883879 -0.57035285
5.001689 -9.6501083 -0.56963456
5.0533886 -9.6260481 -0.56976968
5.1062188 -9.6040535 -0.57004386
5.1550832 -9.5745754 -0.56988978
5.208559 -9.5536156 -0.57025903
5.2565165 -9.5225029 -0.57003832
5.3105354 -9.5023241 -0.57048845
5.3552418 -9.4654989 -0.56995463
5.4045348 -9.4368944 -0.56992978
5.4526997 -9.4063501 -0.56980294
5.4970975 -9.3694315 -0.56930381
5.5498066 -9.3467035 -0.56968212
5.5978603 -9.3160791 -0.56959569
5.6444831 -9.2831297 -0.56938183
5.6942406 -9.2553549 -0.56950068
5.7418976 -9.2241583 -0.56942475
5.7824116 -9.1816444 -0.56866306
5.8415136 -9.1685867 -0.5697425
5.8867035 -9.1335411 -0.56947392
5.9354391 -9.1040306 -0.56956542
5.980751 -9.0692921 -0.56934506
6.0429525 -9.0599518 -0.57073885
6.0866427 -9.0226698 -0.57039177
6.1265721 -8.9799957 -0.56971586
6.173593 -8.947835 -0.56972021
6.2182069 -8.91222 -0.56951952
6.272028 -8.8897228 -0.5701744
6.3076401 -8.8414726 -0.56919193
6.3613415 -8.8186331 -0.56985986
6.4089956 -8.7872725 -0.56999582
6.4490452 -8.7455521 -0.56947392
6.4994082 -8.7178364 -0.56987917
6.5447526 -8.6833248 -0.56985736
6.5862556 -8.6437769 -0.56951922
6.6392517 -8.6192579 -0.57018822
6.6730018 -8.5698013 -0.56922209
6.7192106 -8.5364838 -0.56933999
6.7777362 -8.5186052 -0.57050866
6.8096766 -8.4672956 -0.56945443
6.8479366 -8.4240913 -0.56895447
6.9036398 -8.4022713 -0.56991637
6.9496226 -8.3684435 -0.57008427
6.9969764 -8.336194 -0.57037741
7.0426483 -8.3018694 -0.57054621
7.0670247 -8.2426529 -0.56901383
7.1357675 -8.2351027 -0.57106626
7.1637034 -8.1803293 -0.56986338
7.2134156 -8.1505222 -0.57041246
7.2536139 -8.10991 -0.57022268
7.2892423 -8.0642967 -0.56969351
7.3349972 -8.0299244 -0.56997287
7.3597565 -7.9727225 -0.56864244
7.4091091 -7.9422717 -0.56923205
7.4667583 -7.9204478 -0.57046443
7.4998002 -7.8724341 -0.56982917
7.551528 -7.8440108 -0.5706284
7.5825653 -7.7940884 -0.56987953
7.6284752 -7.7595053 -0.57026601
7.6607065 -7.7110424 -0.56964689
7.7035532 -7.6733255 -0.56983507
7.7499118 -7.6390152 -0.57029521
7.7866387 -7.5951791 -0.57006115
7.8333964 -7.5610881 -0.57057559
7.8635025 -7.5109477 -0.56989372
7.9005809 -7.4675832 -0.56973696
7.9440498 -7.4302359 -0.5700559
7.9942565 -7.3990364 -0.57086849
8.0092878 -7.3353982 -0.56918907
8.0575924 -7.3023663 -0.56989455
8.0890465 -7.2540312 -0.56942272
8.1336803 -7.2175155 -0.56989437
8.1629248 -7.1673598 -0.56930393
