# .PCD v0.7 - Point Cloud Data file format
VERSION 0.7
FIELDS x y z intensity
SIZE 4 4 4 4
TYPE F F F F
COUNT 1 1 1 1
WIDTH 70
HEIGHT 1
VIEWPOINT 0 0 0 1 0 0 0
POINTS 70
DATA ascii
-0.9839226 0.40273875 7.6214752 9.0810394
-0.93894386 0.40059435 7.5859194 9.0809088
-0.88975662 0.39639691 7.511199 9.0807791
-0.84616303 0.39442968 7.4784598 9.0806494
-0.799429 0.39074776 7.412941 9.0805197
-0.75581247 0.38830262 7.370616 9.08039
-0.71338618 0.38624978 7.3354888 9.0802593
-0.66962451 0.38321012 7.2813702 9.0801296
-0.62700427 0.38050699 7.2333927 9.0799999
-0.58694792 0.37912315 7.2102609 9.0798702
-0.54532093 0.37647569 7.1628666 9.0797405
-0.50275171 0.37274933 7.0947008 9.0796108
-0.46231464 0.37014601 7.0476694 9.0794802
-0.42290401 0.36799479 7.0090227 9.0793505
-0.38366628 0.36561018 6.9657102 9.0792208
-0.34524885 0.36359912 6.9292994 9.0790911
-0.30743843 0.3618409 6.8974977 9.0789614
-0.26936904 0.35927996 6.8501863 9.0788307
-0.23211139 0.35719213 6.8116884 9.078701
-0.19543833 0.35542008 6.7790127 9.0785713
-0.15885907 0.35308117 6.7353268 9.0784416
-0.12304986 0.35161892 6.7081699 9.0783119
-0.087177388 0.34874746 6.6539369 9.0781822
-0.052101921 0.34737754 6.6281633 9.0780516
-0.017245712 0.34494224 6.5818777 9.0779219
0.017136365 0.34275517 6.5401454 9.0777922
0.051238313 0.34161964 6.5182991 9.0776625
0.084902287 0.33964607 6.4802866 9.0775328
0.1179553 0.33706105 6.4304357 9.0774031
0.15059754 0.33471903 6.3850536 9.0772724
0.18368889 0.3340528 6.3714695 9.0771427
0.21564893 0.33185834 6.3285708 9.077013
0.24702197 0.32947382 6.2818899 9.0768833
0.28038624 0.33000171 6.2905717 9.0767536
0.31071359 0.32722828 6.2361612 9.076623
0.34139705 0.32533023 6.1982846 9.0764933
0.37536275 0.32662621 6.2210946 9.0763636
0.4106873 0.32881126 6.2606459 9.0762339
0.44694138 0.33137056 6.3071203 9.0761042
0.48222736 0.33291751 6.3341241 9.0759745
0.51899129 0.33522841 6.3754597 9.0758438
0.55342227 0.33585265 6.3845191 9.0757141
0.59369117 0.3397553 6.4556851 9.0755844
0.62806153 0.34005234 6.4581265 9.0754547
0.66612315 0.34222427 6.4959741 9.075325
0.70591992 0.34504205 6.5458508 9.0751953
0.74361861 0.34662974 6.5721641 9.0750647
0.78275913 0.34872827 6.6079416 9.074935
0.82034266 0.34999391 6.6277161 9.0748053
0.86423123 0.35374674 6.6943445 9.0746756
0.90289891 0.35516244 6.7164965 9.0745459
0.94447601 0.35758281 6.7574115 9.0744152
0.98747051 0.36035496 6.8047171 9.0742855
1.030942 0.36311141 6.8514595 9.0741558
1.0704528 0.36434388 6.8691998 9.0740261
1.1176336 0.36803153 6.9329638 9.0738964
1.1591829 0.36970073 6.9584289 9.0737667
1.2025371 0.37183601 6.992413 9.0736361
1.2492777 0.37487113 7.0430388 9.0735064
1.2954789 0.37758479 7.0873318 9.0733767
1.3402849 0.37976196 7.1212721 9.073247
1.3882402 0.38269952 7.1691799 9.0731173
1.439935 0.38649619 7.2328577 9.0729866
1.4844431 0.38822892 7.2576046 9.0728569
1.5379024 0.39216807 7.3232846 9.0727272
1.5879346 0.39507326 7.3693161 9.0725975
1.6361222 0.39740303 7.4043012 9.0724678
1.6863636 0.40012285 7.4462409 9.0723381
1.7392974 0.40335473 7.4973745 9.0722075
1.7960863 0.40732899 7.5619378 9.0720778
