# .PCD v0.7 - Point Cloud Data file format
VERSION 0.7
FIELDS x y z intensity
SIZE 4 4 4 4
TYPE F F F F
COUNT 1 1 1 1
WIDTH 67
HEIGHT 1
VIEWPOINT 0 0 0 1 0 0 0
POINTS 67
DATA ascii
3.4186535 -0.42761222 7.4086185 6.0391965
3.4223256 -0.42327049 7.3155622 6.0391207
3.4146698 -0.41765097 7.2006426 6.0390449
3.4247091 -0.41430631 7.1251287 6.038969
3.4249971 -0.40987808 7.0311217 6.0388932
3.414114 -0.40423256 6.9164815 6.0388174
3.4229288 -0.4010244 6.8437462 6.0387416
3.4196918 -0.39649636 6.7486444 6.0386658
3.4227481 -0.39279401 6.6677828 6.03859
3.4162533 -0.38809213 6.5701551 6.0385141
3.4174728 -0.38436225 6.4891911 6.0384383
3.4235735 -0.38125992 6.4189615 6.0383625
3.4238992 -0.37759143 6.3393431 6.0382867
3.4231842 -0.37389007 6.2593489 6.0382109
3.416249 -0.36959618 6.1696467 6.0381351
3.4201519 -0.36655444 6.1010323 6.0380592
3.4215758 -0.36331576 6.0292797 6.0379834
3.4297867 -0.36086035 5.9706402 6.0379076
3.4245908 -0.3570613 5.8899179 6.0378318
3.4237499 -0.35378984 5.8180914 6.037756
3.4175024 -0.35003203 5.7384639 6.0376801
3.4112024 -0.34634393 5.660203 6.0376043
3.4285183 -0.34510601 5.6220822 6.0375285
3.4107239 -0.3403945 5.5275307 6.0374527
3.4293096 -0.33937186 5.4930291 6.0373769
3.4811511 -0.34163922 5.5115614 6.0373011
3.504195 -0.3410756 5.4841809 6.0372252
3.5333741 -0.34112272 5.4664974 6.0371494
3.5910192 -0.34390455 5.4923334 6.0370736
3.6244938 -0.34435511 5.4806108 6.0369978
3.6648114 -0.34545299 5.4789548 6.036922
3.7157114 -0.34753299 5.492548 6.0368462
3.7623141 -0.34919164 5.4991217 6.0367703
3.788569 -0.3489604 5.4757018 6.0366945
3.8382344 -0.35088229 5.4858208 6.0366187
3.8755307 -0.35166276 5.4777894 6.0365429
3.9231389 -0.35337019 5.4839025 6.0364671
3.9709926 -0.35508439 5.4897709 6.0363913
4.0163169 -0.35655904 5.4915986 6.0363154
4.0575261 -0.35765967 5.4873624 6.0362396
4.102098 -0.35904893 5.4872561 6.0361638
4.145246 -0.36030489 5.4848032 6.036088
4.1850724 -0.36126661 5.4775872 6.0360122
4.2422037 -0.36370873 5.4924603 6.0359364
4.2789116 -0.36438864 5.4803801 6.0358605
4.3343382 -0.36665288 5.491796 6.0357847
4.3773518 -0.36785412 5.4869246 6.0357089
4.4272585 -0.36962521 5.4902177 6.0356331
4.4777484 -0.37143189 5.4936638 6.0355573
4.5264082 -0.37307477 5.4943185 6.0354815
4.5768447 -0.37485257 5.4965916 6.0354056
4.6218371 -0.37617531 5.4918427 6.0353298
4.6641994 -0.37727913 5.4835911 6.035254
4.7246943 -0.37983754 5.4960933 6.0351782
4.7607822 -0.38042498 5.4797201 6.0351024
4.815433 -0.38249022 5.4843092 6.0350266
4.8658385 -0.38420618 5.48349 6.0349507
4.924593 -0.38656786 5.4914656 6.0348749
4.9705496 -0.38791385 5.4846144 6.0347991
5.0242085 -0.38985264 5.4857731 6.0347233
5.067656 -0.39099216 5.475327 6.0346475
5.1400437 -0.39434984 5.4954867 6.0345716
5.1807389 -0.3952629 5.4811373 6.0344958
5.2542248 -0.39866471 5.5008521 6.03442
5.2914014 -0.39930028 5.4819679 6.0343442
5.3546576 -0.40189734 5.4896383 6.0342684
5.413156 -0.40412235 5.4917393 6.0341926
