# .PCD v0.7 - Point Cloud Data file format
VERSION 0.7
FIELDS x y z
SIZE 4 4 4
TYPE F F F
COUNT 1 1 1
WIDTH 159
HEIGHT 1
VIEWPOINT 0 0 0 1 0 0 0
POINTS 159
DATA ascii
-1.2636567 -2.8462381 0.83443266
-1.2435622 -2.7748191 0.81476241
-1.2505376 -2.7632024 0.81269181
-1.2529516 -2.7430058 0.80803311
-1.2447258 -2.7000182 0.79664505
-1.2533277 -2.6939058 0.79612744
-1.2660075 -2.6965089 0.79819798
-1.278721 -2.6990569 0.80026853
-1.2785026 -2.6756275 0.7945745
-1.2953852 -2.68681 0.7992332
-1.3068223 -2.6877115 0.80078614
-1.3230022 -2.6970091 0.80492729
-1.3366927 -2.7010314 0.80751544
-1.3487017 -2.7015345 0.80906838
-1.3581237 -2.6968102 0.80906838
-1.3780283 -2.7127213 0.81528002
-1.4002992 -2.7317202 0.82252699
-1.4151497 -2.737112 0.82563275
-1.4295762 -2.7426829 0.82873863
-1.4400395 -2.7393863 0.8292563
-1.4595472 -2.7531176 0.83495027
-1.4737021 -2.7565246 0.83753842
-1.4961498 -2.7751703 0.84478539
-1.5085961 -2.7750225 0.84633833
-1.5219879 -2.7765155 0.84840888
-1.5372777 -2.7813306 0.8515147
-1.5545003 -2.7894478 0.85565579
-1.5755829 -2.8042154 0.86186743
-1.5844103 -2.7970171 0.86134982
-1.6047018 -2.8099229 0.86704385
-1.6188291 -2.812958 0.86963201
-1.6368707 -2.8226151 0.87429082
-1.663288 -2.8452361 0.88309062
-1.6712481 -2.8360841 0.88205534
-1.6910036 -2.8468425 0.88723171
-1.7068841 -2.8508675 0.89033753
-1.7302989 -2.86835 0.8975845
-1.7543516 -2.8854022 0.90483141
-1.7644129 -2.8792608 0.90483141
-1.7830777 -2.8859224 0.9089725
-1.7982463 -2.8878801 0.91156071
-1.823212 -2.9064491 0.91932529
-1.8488306 -2.9245605 0.92708987
-1.8553834 -2.9112487 0.92501926
-1.8738866 -2.9177577 0.92916042
-1.8992914 -2.9358585 0.93692499
-1.9200778 -2.945394 0.94210136
-1.9409539 -2.9548204 0.94727772
-1.9571378 -2.9580345 0.95038354
-1.9781673 -2.9672589 0.95555997
-1.9971308 -2.9731646 0.95970106
-2.0226557 -2.9885733 0.96694797
-2.0396059 -2.9910715 0.97005379
-2.0587854 -2.9966724 0.97419494
-2.0802279 -3.005352 0.97937131
-2.1017563 -3.0139184 0.98454767
-2.1255906 -3.0255322 0.99075931
-2.1539958 -3.0433235 0.99904156
-2.1708038 -3.0456028 1.0021474
-2.194943 -3.0568371 1.0083591
-2.2129271 -3.0581622 1.0114648
-2.2417955 -3.0753975 1.0197471
-2.2588406 -3.0772903 1.0228529
-2.2764602 -3.0787067 1.0259588
-2.2952707 -3.0815868 1.0295821
-2.3303609 -3.1060066 1.0404526
-2.3598249 -3.1225128 1.0487348
-2.3894324 -3.1388507 1.057017
-2.4039004 -3.1350906 1.0585699
-2.4242771 -3.1389115 1.0627111
-2.4589419 -3.1609266 1.0730639
-2.4937916 -3.1827366 1.0834166
-2.5228369 -3.1967597 1.0911812
-2.5447993 -3.2015448 1.0958399
-2.5668256 -3.2062151 1.1004987
-2.6046782 -3.2303212 1.1118866
-2.6329889 -3.2422037 1.1191336
-2.6614137 -3.2539284 1.1263806
-2.6850379 -3.2595298 1.1315569
-2.6963995 -3.2501373 1.1315569
-2.7368844 -3.2767625 1.1439801
-2.7750888 -3.3001974 1.1553683
-2.805989 -3.3145678 1.1636505
-2.8320019 -3.3228879 1.169862
-2.8497756 -3.317852 1.1719327
-2.8891439 -3.3400276 1.1833206
-2.9363148 -3.3707094 1.1978146
-2.9722691 -3.388031 1.2076497
-2.9981475 -3.3935606 1.2133437
-3.0305212 -3.4061673 1.2216259
-3.055284 -3.409956 1.2268023
-3.0956399 -3.4308243 1.2381904
-3.1387758 -3.4543128 1.2506137
-3.1664643 -3.4604378 1.2568253
-3.1994712 -3.4720936 1.2651075
-3.2378531 -3.4892256 1.2754604
-3.2705059 -3.5010569 1.2837424
-3.3303583 -3.5402758 1.3023775
-3.3506672 -3.5370436 1.3054833
-3.3949966 -3.5588739 1.3179066
-3.4341652 -3.5748661 1.3282595
-3.4761736 -3.5934024 1.3396474
-3.5237446 -3.6172245 1.353106
-3.5552886 -3.6242101 1.3603529
-3.5896404 -3.6337669 1.3686352
-3.6377265 -3.6568241 1.3820938
-3.6805482 -3.6741304 1.3934819
-3.7427418 -3.710222 1.4121168
-3.7798014 -3.7221892 1.4214342
-3.8203952 -3.7359858 1.431787
-3.8666742 -3.7549288 1.4442104
-3.9214759 -3.7816391 1.4597394
-3.9765103 -3.8080113 1.4752686
-4.0121779 -3.8154066 1.4835509
-4.0535622 -3.8279066 1.4939036
-4.1148119 -3.8586633 1.5115032
-4.1763239 -3.8890398 1.529103
-4.2380986 -3.9190314 1.5467027
-4.2709894 -3.9232523 1.5539496
-4.33604 -3.9551883 1.5725845
-4.3813205 -3.9685595 1.5839727
-4.4497261 -4.0023351 1.6036428
-4.5184212 -4.0356803 1.6233131
-4.5700588 -4.0532112 1.6367717
-4.6218724 -4.0704317 1.6502303
-4.7000394 -4.1102285 1.6730064
-4.7581177 -4.1317964 1.6885355
-4.825181 -4.1605787 1.7071705
-4.9035101 -4.1998496 1.7299466
-4.9615521 -4.2211194 1.7454758
-5.0345445 -4.2545204 1.7661812
-5.1018925 -4.282516 1.7848163
-5.1576443 -4.2941384 1.7982749
-5.2574725 -4.3462687 1.8277801
-5.3248734 -4.3707905 1.8458976
-5.3999982 -4.4009948 1.866603
-5.4814062 -4.4355874 1.889379
-5.5691438 -4.4745054 1.9142257
-5.6511765 -4.5080466 1.9370018
-5.7335119 -4.5410681 1.959778
-5.8252568 -4.5807338 1.9856598
-5.9082117 -4.6126804 2.0084357
-6.021997 -4.6677732 2.0415647
-6.1025567 -4.696208 2.0633056
-6.2018056 -4.7382107 2.0912578
-6.2891102 -4.7702365 2.1150692
-6.240087 -4.7005363 2.0933285
-6.2525468 -4.6775026 2.0922933
-6.2595305 -4.6487379 2.0891874
-6.2912679 -4.6383247 2.0943637
-6.29495 -4.6072063 2.0902226
-6.3039422 -4.5817647 2.0881522
-6.3167648 -4.5574698 2.0871167
-6.333425 -4.5342879 2.0871167
-6.3531518 -4.5132823 2.0881522
-6.3664932 -4.48774 2.0871167
-6.3837261 -4.469933 2.0881522
-6.4024625 -4.4498272 2.0891874
-6.4084139 -4.4208708 2.0860815
