# .PCD v0.7 - Point Cloud Data file format
VERSION 0.7
FIELDS x y z
SIZE 4 4 4
TYPE F F F
COUNT 1 1 1
WIDTH 71
HEIGHT 1
VIEWPOINT 0 0 0 1 0 0 0
POINTS 71
DATA ascii
3.3769829 -1.0718907 -0.94934833
3.37341 -1.0830834 -0.94934833
3.3696086 -1.0948522 -0.94934833
3.3657663 -1.1066076 -0.94934833
3.3618832 -1.1183497 -0.94934833
3.3579588 -1.1300781 -0.94934833
3.3539937 -1.1417925 -0.94934833
3.3499875 -1.1534932 -0.94934833
3.3459408 -1.1651798 -0.94934833
3.3418531 -1.1768522 -0.94934833
3.3379321 -1.1879278 -0.94934833
3.3339746 -1.1989902 -0.94934833
3.3297689 -1.2106206 -0.94934833
3.3255227 -1.2222364 -0.94934833
3.3125415 -1.2569934 -0.94934833
3.3081336 -1.2685488 -0.94934833
3.303462 -1.2806652 -0.94934833
3.2989714 -1.2921885 -0.94934833
3.2903287 -1.3140397 -0.94934833
3.2854905 -1.3260905 -0.94934833
3.2806082 -1.3381234 -0.94934833
3.2761526 -1.348995 -0.94934833
3.2716613 -1.3598516 -0.94934833
3.2668946 -1.3712635 -0.94934833
3.2620881 -1.3826588 -0.94934833
3.2359295 -1.3849161 -0.94313669
3.2097948 -1.3870074 -0.93692499
3.1943097 -1.3935684 -0.93381917
3.182354 -1.4015952 -0.93174857
3.1491978 -1.4001379 -0.92346638
3.1515882 -1.4137361 -0.92553693
3.1393464 -1.4220891 -0.92346638
3.1009817 -1.4177767 -0.91363126
3.1030304 -1.43183 -0.91570181
3.0772481 -1.4323297 -0.90949017
3.0687325 -1.44142 -0.9084549
3.0357513 -1.4388844 -0.90017265
3.041167 -1.4544734 -0.90327853
3.0360713 -1.4650803 -0.90327853
2.9994192 -1.4609709 -0.89396101
2.9665599 -1.4577996 -0.88567883
2.9718382 -1.4732944 -0.88878465
2.9323766 -1.4658651 -0.87843186
2.9341419 -1.4795716 -0.88050246
2.8945212 -1.4722877 -0.87014967
2.8962398 -1.4859098 -0.87222022
2.8741372 -1.4866306 -0.86704385
2.8757818 -1.5002284 -0.8691144
2.8705275 -1.5102576 -0.8691144
2.837934 -1.5057808 -0.86083221
2.8258469 -1.5120323 -0.85876161
2.8273523 -1.5255564 -0.86083221
2.7982528 -1.5224906 -0.85358524
2.8064709 -1.5396826 -0.85772634
2.7807939 -1.5382484 -0.8515147
2.7686586 -1.5441819 -0.84944409
2.7598839 -1.5519429 -0.84840888
2.7513611 -1.5591817 -0.8473736
2.7361097 -1.5625488 -0.84426773
2.7205937 -1.5663068 -0.84116197
2.6950595 -1.5641574 -0.83495027
2.6762435 -1.5657511 -0.83080912
2.6674337 -1.5731204 -0.8297739
2.6619263 -1.5824219 -0.8297739
2.6514151 -1.5887253 -0.82822096
2.6227024 -1.5839885 -0.82097405
2.6171572 -1.5931339 -0.82097405
2.6082869 -1.600239 -0.81993878
2.6059713 -1.6113662 -0.82097405
2.5904934 -1.6143224 -0.81786817
2.5851257 -1.6229039 -0.81786817
