# .PCD v0.7 - Point Cloud Data file format
VERSION 0.7
FIELDS x y z intensity
SIZE 4 4 4 4
TYPE F F F F
COUNT 1 1 1 1
WIDTH 242
HEIGHT 1
VIEWPOINT 0 0 0 1 0 0 0
POINTS 242
DATA ascii
-2.5101817 -0.41210952 -7.4521198 6.0862017
-2.5013824 -0.40437946 -7.2993302 6.0861259
-2.5033565 -0.3986086 -7.1821423 6.08605
-2.5036664 -0.39275837 -7.0637102 6.0859742
-2.5087643 -0.38782945 -6.9620128 6.0858984
-2.4988656 -0.3807672 -6.8222356 6.0858226
-2.5017171 -0.37582996 -6.720757 6.0857468
-2.5046647 -0.37105417 -6.6223202 6.0856709
-2.5032058 -0.36577511 -6.5150747 6.0855951
-2.5027168 -0.36078784 -6.4132161 6.0855193
-2.5052814 -0.35637692 -6.3217678 6.0854435
-2.505882 -0.35181502 -6.2277975 6.0853677
-2.5022304 -0.34679064 -6.1258283 6.0852919
-2.5000491 -0.34210414 -6.030026 6.085216
-2.4956174 -0.3372398 -5.9312897 6.0851402
-2.493408 -0.33280089 -5.8402333 6.0850644
-2.4962623 -0.32914636 -5.7630987 6.0849886
-2.4904346 -0.32445702 -5.6680193 6.0849128
-2.5018704 -0.32210967 -5.6139789 6.084837
-2.5037293 -0.31860694 -5.5398865 6.0847611
-2.4973998 -0.31416306 -5.4496045 6.0846853
-2.4952028 -0.31034219 -5.3703241 6.0846095
-2.4971378 -0.30712318 -5.3016076 6.0845337
-2.4942346 -0.30339482 -5.2242494 6.0844579
-2.504014 -0.30128166 -5.1748114 6.0843821
-2.4904544 -0.29644385 -5.0787358 6.0843062
-2.4958529 -0.29394919 -5.0229869 6.0842304
-2.4922845 -0.29046953 -4.9505343 6.0841546
-2.4909875 -0.28733143 -4.8840647 6.0840788
-2.4997284 -0.28541109 -4.8383899 6.084003
-2.4947584 -0.28198731 -4.7673407 6.0839272
-2.490382 -0.27870554 -4.6988721 6.0838513
-2.4934983 -0.27632591 -4.6457496 6.0837755
-2.4944148 -0.27375838 -4.5895748 6.0836997
-2.5039411 -0.27218327 -4.5501084 6.0836239
-2.5007367 -0.26927444 -4.4884386 6.0835481
-2.4968228 -0.26635146 -4.426693 6.0834723
-2.4935737 -0.26355982 -4.3672895 6.0833964
-2.4959822 -0.26141867 -4.3187895 6.0833206
-2.4955633 -0.25902966 -4.2663021 6.0832448
-2.50348 -0.25754762 -4.2288318 6.083169
-2.4986906 -0.25480294 -4.1707287 6.0830932
-2.495214 -0.25224549 -4.1158476 6.0830173
-2.4981961 -0.25038609 -4.072473 6.0829415
-2.4899483 -0.24744898 -4.0117083 6.0828657
-2.4924619 -0.2456283 -3.9691842 6.0827899
-2.4939189 -0.2437412 -3.9256749 6.0827141
-2.4813476 -0.24053176 -3.8610337 6.0826383
-2.498728 -0.24026075 -3.8436422 6.0825624
-2.4918382 -0.23768556 -3.789439 6.0824866
-2.4806051 -0.23474658 -3.7296345 6.0824108
-2.4884198 -0.23364842 -3.6991978 6.082335
-2.4931867 -0.23228964 -3.6646702 6.0822592
-2.4872277 -0.22996625 -3.6150315 6.0821834
-2.4841928 -0.22795258 -3.5704081 6.0821075
-2.4860549 -0.22642122 -3.5334432 6.0820317
-2.4910669 -0.22520347 -3.5014334 6.0819559
-2.4962094 -0.22402135 -3.4700205 6.0818801
-2.497328 -0.22250393 -3.4334767 6.0818043
-2.4978194 -0.2209588 -3.3965909 6.0817285
-2.4945731 -0.21911326 -3.3551948 6.0816526
-2.4875281 -0.21696819 -3.3093581 6.0815768
-2.499145 -0.21647523 -3.2887881 6.081501
-2.4945917 -0.21460384 -3.2473292 6.0814252
-2.492079 -0.21293803 -3.2091072 6.0813494
-2.49668 -0.21190414 -3.1804862 6.0812736
-2.4906318 -0.20999187 -3.1387761 6.0811977
-2.4985554 -0.2092807 -3.1150959 6.0811219
-2.4973466 -0.2078245 -3.0803759 6.0810461
-2.4931512 -0.2061457 -3.0424697 6.0809703
-2.4969573 -0.2051513 -3.01475 6.0808945
-2.4962173 -0.20380385 -2.9819088 6.0808187
-2.4985001 -0.20272397 -2.9530563 6.0807428
-2.4887555 -0.20069303 -2.91047 6.080667
-2.4946117 -0.19994271 -2.8865559 6.0805912
-2.4880798 -0.19821995 -2.8486855 6.0805154
-2.4856997 -0.19685197 -2.8160384 6.0804396
-2.4797406 -0.19522373 -2.7797892 6.0803638
-2.4822073 -0.19427933 -2.7533722 6.0802879
-2.4803469 -0.1930144 -2.7224848 6.0802121
-2.4953868 -0.19307686 -2.7103267 6.0801363
-2.4928939 -0.19179499 -2.6793053 6.0800605
-2.4990945 -0.19119778 -2.6579032 6.0799847
-2.4846895 -0.1890447 -2.6149876 6.0799088
-2.4870315 -0.1881876 -2.5901344 6.079833
-2.4798751 -0.1866301 -2.5557375 6.0797572
-2.4914126 -0.18649377 -2.5408494 6.0796814
-2.4782391 -0.18452406 -2.501061 6.0796056
-2.4853535 -0.18408276 -2.4820898 6.0795298
-2.4887993 -0.18338078 -2.4596162 6.0794539
-2.4900355 -0.18252909 -2.4351776 6.0793781
-2.4892879 -0.18154636 -2.409055 6.0793023
-2.4882784 -0.18055953 -2.3829536 6.0792265
-2.4769011 -0.17883891 -2.3472979 6.0791507
-2.4885378 -0.17879365 -2.3336952 6.0790749
-2.4864678 -0.17777373 -2.3073845 6.078999
-2.4840124 -0.17674112 -2.2809963 6.0789232
-2.4907796 -0.17637633 -2.2632668 6.0788474
-2.4786818 -0.17469025 -2.2286725 6.0787716
-2.477138 -0.17376508 -2.2039187 6.0786958
-2.4900553 -0.17386298 -2.1921418 6.07862
-2.4878213 -0.17291167 -2.16714 6.0785441
-2.485328 -0.17195578 -2.1421649 6.0784683
-2.4792044 -0.17076313 -2.1143446 6.0783925
-2.4937229 -0.17100129 -2.1042542 6.0783167
-2.49755 -0.17051208 -2.085175 6.0782409
-2.4842517 -0.16886768 -2.0520756 6.0781651
-2.488883 -0.1684556 -2.0340536 6.0780892
-2.4854763 -0.16750994 -2.0096378 6.0780134
-2.4894414 -0.16707157 -1.9913604 6.0779376
-2.4865963 -0.16618629 -1.9678051 6.0778618
-2.4837108 -0.16531017 -1.9444423 6.077786
-2.4867346 -0.16483743 -1.9258769 6.0777102
-2.4924653 -0.16455173 -1.9095038 6.0776343
-2.4910321 -0.16380176 -1.887773 6.0775585
-2.476656 -0.16221447 -1.8565269 6.0774827
-2.4817793 -0.16191623 -1.8401334 6.0774069
-2.4788027 -0.16109829 -1.8178731 6.0773311
-2.4846864 -0.16086467 -1.802241 6.0772552
-2.4712608 -0.15939179 -1.7728138 6.0771794
-2.4780326 -0.15923215 -1.7580767 6.0771036
-2.4745712 -0.15842292 -1.7361982 6.0770278
-2.4774687 -0.15802956 -1.7189282 6.076952
-2.4774082 -0.15745538 -1.6997236 6.0768762
-2.4890873 -0.15763308 -1.6886215 6.0768003
-2.4747274 -0.15617061 -1.6600094 6.0767245
-2.4868922 -0.1563907 -1.6493393 6.0766487
-2.4750283 -0.15510769 -1.6228607 6.0765729
-2.493315 -0.15572079 -1.6162317 6.0764971
-2.4945545 -0.15527287 -1.5985326 6.0764213
-2.4866285 -0.15426362 -1.5751332 6.0763454
-2.490135 -0.15397216 -1.5591295 6.0762696
-2.4918118 -0.15357405 -1.5420614 6.0761938
-2.4750369 -0.15204918 -1.5138009 6.0761185
-2.4718108 -0.15136793 -1.4940857 6.0760427
-2.4771578 -0.15121846 -1.4796494 6.0759668
-2.483501 -0.15113468 -1.4658355 6.075891
-2.4854434 -0.15078856 -1.449474 6.0758152
-2.4732327 -0.14959265 -1.4250371 6.0757394
-2.4903345 -0.15017566 -1.4175602 6.0756636
-2.4899945 -0.14971064 -1.4001416 6.0755877
-2.4749877 -0.14837319 -1.3746824 6.0755119
-2.4987826 -0.14936696 -1.3708142 6.0754361
-2.4789758 -0.14776024 -1.3430964 6.0753603
-2.4797649 -0.14739084 -1.326762 6.0752845
-2.4834721 -0.1472005 -1.3120522 6.0752087
-2.4936702 -0.14739889 -1.300771 6.0751328
-2.4903064 -0.1468008 -1.2824605 6.075057
-2.4837205 -0.14602052 -1.2626457 6.0749812
-2.4822171 -0.14554639 -1.2455554 6.0749054
-2.4868989 -0.14544046 -1.2316337 6.0748296
-2.4779689 -0.14454506 -1.2110823 6.0747538
-2.4803288 -0.14431509 -1.1961743 6.0746779
-2.4887419 -0.14444153 -1.1841967 6.0746021
-2.4839511 -0.14380689 -1.165993 6.0745263
-2.4828525 -0.14339252 -1.1496381 6.0744505
-2.4722276 -0.14243525 -1.1290234 6.0743747
-2.4694519 -0.1419376 -1.1121533 6.0742989
-2.4783683 -0.14211665 -1.1005839 6.074223
-2.4780467 -0.14177023 -1.0849303 6.0741472
-2.4758379 -0.14132157 -1.0685374 6.0740714
-2.4982085 -0.14227867 -1.0626971 6.0739956
-2.4871547 -0.14133601 -1.042637 6.0739198
-2.4810929 -0.14068441 -1.0248426 6.073844
-2.4803066 -0.14033797 -1.0093352 6.0737681
-2.4760528 -0.13980108 -0.99251205 6.0736923
-2.4788942 -0.13967004 -0.97860497 6.0736165
-2.4843874 -0.13969249 -0.96575642 6.0735407
-2.5074689 -0.14070563 -0.95963401 6.0734649
-2.4824297 -0.13902365 -0.93516672 6.0733891
-2.4710803 -0.1381173 -0.91613322 6.0733132
-2.4589944 -0.13717715 -0.89702362 6.0732374
-2.4664681 -0.13733342 -0.88513261 6.0731616
-2.482959 -0.13799402 -0.87639076 6.0730858
-2.4847748 -0.13784188 -0.86241531 6.07301
-2.4685812 -0.1366968 -0.84232646 6.0729342
-2.4639599 -0.13619922 -0.82635981 6.0728583
-2.4675882 -0.13616236 -0.81321627 6.0727825
-2.4717157 -0.13615683 -0.80024171 6.0727067
-2.4805555 -0.13641421 -0.78876638 6.0726309
-2.4792688 -0.1361185 -0.77407497 6.0725551
-2.4837439 -0.13614333 -0.76121092 6.0724792
-2.4813273 -0.13579464 -0.74626863 6.0724034
-2.4751461 -0.13524507 -0.73028785 6.0723276
-2.4626019 -0.13435374 -0.71257985 6.0722518
-2.4764407 -0.13490604 -0.70254147 6.072176
-2.4889052 -0.13538565 -0.69200587 6.0721002
-2.4736021 -0.1343593 -0.67380661 6.0720243
-2.4798219 -0.134507 -0.66156131 6.0719485
-2.4927266 -0.13502006 -0.65103096 6.0718727
-2.4743328 -0.13384239 -0.63239497 6.0717969
-2.4845805 -0.1342188 -0.621162 6.0717211
-2.4912143 -0.13440292 -0.60896766 6.0716453
-2.466059 -0.13287738 -0.58914077 6.0715694
-2.4946523 -0.13425183 -0.58216989 6.0714936
-2.4843144 -0.13353403 -0.56604636 6.0714178
-2.4676068 -0.13247961 -0.54865319 6.071342
-2.4823859 -0.13311979 -0.53830326 6.0712662
-2.4804723 -0.13286802 -0.5242939 6.0711904
-2.4915597 -0.13331608 -0.51301241 6.0711145
-2.4816682 -0.13264552 -0.49743411 6.0710387
-2.4647148 -0.13160293 -0.48061496 6.0709629
-2.4936907 -0.13301601 -0.47271425 6.0708871
-2.4623199 -0.1312141 -0.45341349 6.0708113
-2.4754231 -0.13178699 -0.44242719 6.0707355
-2.4656224 -0.1311442 -0.42735443 6.0706596
-2.4943402 -0.13255309 -0.41888013 6.0705838
-2.4853053 -0.13195865 -0.40398338 6.070508
-2.4731467 -0.13120311 -0.38871562 6.0704322
-2.486959 -0.1318291 -0.37754294 6.0703564
-2.4764991 -0.13117211 -0.36268866 6.0702806
-2.4853468 -0.13154158 -0.35069105 6.0702047
-2.4764152 -0.13097382 -0.3362048 6.0701289
-2.4776993 -0.13095036 -0.32316509 6.0700531
-2.4683723 -0.1303701 -0.30880225 6.0699773
-2.4804046 -0.13092157 -0.29711443 6.0699015
-2.4876208 -0.13122189 -0.28476396 6.0698256
-2.4720874 -0.13032611 -0.26986918 6.0697498
-2.4684782 -0.13006322 -0.25639269 6.069674
-2.501174 -0.13171607 -0.24654736 6.0695982
-2.4705513 -0.13003804 -0.23046309 6.0695224
-2.4787078 -0.1304054 -0.21812791 6.0694466
-2.4891233 -0.1308948 -0.20590553 6.0693707
-2.4814222 -0.13043508 -0.19218153 6.0692949
-2.4668725 -0.12961945 -0.17805502 6.0692191
-2.4785092 -0.13018343 -0.16584383 6.0691433
-2.4752409 -0.12996797 -0.15260038 6.0690675
-2.4755361 -0.12994328 -0.13960069 6.0689917
-2.4790268 -0.13008985 -0.12676898 6.0689158
-2.4833188 -0.13028197 -0.11394435 6.06884
-2.4831657 -0.1302444 -0.10090029 6.0687642
-2.4769204 -0.12989095 -0.087647796 6.0686884
-2.4941571 -0.1307724 -0.075173423 6.0686126
-2.4750416 -0.12975143 -0.061617345 6.0685368
-2.493253 -0.13069089 -0.048998695 6.0684609
-2.4900498 -0.13051134 -0.035883196 6.0683851
-2.4903817 -0.13052066 -0.022835663 6.0683093
-2.4755654 -0.12973969 -0.0097263874 6.0682335
-2.4753697 -0.12972854 0.0032462371 6.0681577
-2.4707241 -0.12948775 0.016187835 6.0680819
-2.4666281 -0.1292793 0.02908811 6.068006
-2.4853492 -0.13027033 0.042335715 6.0679302
