# .PCD v0.7 - Point Cloud Data file format
VERSION 0.7
FIELDS x y z intensity
SIZE 4 4 4 4
TYPE F F F F
COUNT 1 1 1 1
WIDTH 70
HEIGHT 1
VIEWPOINT 0 0 0 1 0 0 0
POINTS 70
DATA ascii
-0.98511142 0.67313766 7.6306844 10.081039
-0.9377088 0.66786581 7.5759411 10.080909
-0.89179385 0.66325343 7.5283971 10.080779
-0.84585714 0.65821624 7.4757562 10.080649
-0.80493182 0.65679783 7.4639673 10.08052
-0.75799948 0.65010154 7.3919435 10.08039
-0.71368945 0.645073 7.3386073 10.080259
-0.66932595 0.63943928 7.2781234 10.08013
-0.62687218 0.63507813 7.2318687 10.08
-0.58545303 0.6312899 7.1918974 10.07987
-0.54571611 0.62893766 7.1680579 10.079741
-0.50338227 0.62304193 7.1035991 10.079611
-0.46377152 0.61986274 7.0698791 10.07948
-0.42401004 0.61593091 7.0273533 10.07935
-0.38412845 0.61107874 6.9741011 10.079221
-0.34553412 0.6074878 6.9350252 10.079091
-0.3069607 0.6031124 6.8867793 10.078961
-0.26964954 0.60040045 6.8573194 10.078831
-0.23198684 0.59597051 6.808033 10.078701
-0.19540553 0.59323269 6.7778749 10.078571
-0.15865822 0.58868247 6.7268109 10.078442
-0.12272693 0.58544618 6.6905651 10.078312
-0.087367989 0.58346599 6.6684847 10.078182
-0.052049659 0.57932454 6.6215153 10.078052
-0.017218653 0.57493728 6.5715504 10.077922
0.017119361 0.57162189 6.5336552 10.077792
0.051137306 0.56916982 6.5054493 10.077662
0.084608316 0.56503624 6.457849 10.077533
0.11815896 0.56365556 6.4415383 10.077403
0.15068185 0.55908716 6.388628 10.077272
0.18346013 0.55696762 6.3635349 10.077143
0.21575731 0.55427712 6.3317513 10.077013
0.24744378 0.55095726 6.2926164 10.076883
0.27823073 0.54666418 6.2422118 10.076754
0.31023443 0.54542696 6.2265444 10.076623
0.34106433 0.54257149 6.1922441 10.076493
0.37676069 0.54729497 6.2442636 10.076364
0.41129002 0.54971755 6.269834 10.076234
0.44658816 0.55274725 6.3021355 10.076104
0.48055688 0.55384165 6.3121819 10.075974
0.51865709 0.55926424 6.3713536 10.075844
0.55650413 0.56378895 6.4200726 10.075714
0.59151608 0.56510383 6.432034 10.075584
0.62815541 0.56776249 6.4590917 10.075455
0.66792524 0.57284898 6.5135469 10.075325
0.70490539 0.57517958 6.5364428 10.075195
0.7454738 0.58010143 6.5885601 10.075065
0.78475094 0.58364248 6.6247559 10.074935
0.82114553 0.58484578 6.6342025 10.074805
0.86405921 0.59042132 6.6930127 10.074676
0.90470135 0.59408575 6.7299042 10.074546
0.94445813 0.5969314 6.7572837 10.074415
0.98476326 0.59992123 6.7860608 10.074286
1.0298969 0.60555756 6.8445139 10.074156
1.0751554 0.61090159 6.8993773 10.074026
1.1145353 0.61268246 6.9137444 10.073896
1.162393 0.61888129 6.9776983 10.073767
1.2065537 0.62281013 7.015769 10.073636
1.2516271 0.62698042 7.056284 10.073506
1.2971245 0.63113439 7.0963349 10.073377
1.3414776 0.63453245 7.1276093 10.073247
1.3919939 0.64059955 7.1885648 10.073117
1.4391615 0.64486367 7.2289729 10.072987
1.4853939 0.64851797 7.2622538 10.072857
1.5347079 0.65331888 7.308073 10.072727
1.5846401 0.65816033 7.3540268 10.072598
1.6344801 0.66275215 7.3968701 10.072468
1.6877977 0.66852635 7.4525728 10.072338
1.7406 0.67385793 7.5029898 10.072207
1.7999076 0.68143481 7.5780258 10.072078
