# .PCD v0.7 - Point Cloud Data file format
VERSION 0.7
FIELDS x y z
SIZE 4 4 4
TYPE F F F
COUNT 1 1 1
WIDTH 161
HEIGHT 1
VIEWPOINT 0 0 0 1 0 0 0
POINTS 161
DATA ascii
0.1681537 -9.8715858 -0.17233391
0.22030847 -9.8897257 -0.17266838
0.27202949 -9.8847532 -0.17260407
0.3237173 -9.8799019 -0.17254663
0.37575132 -9.8850298 -0.1726682
0.42731452 -9.877553 -0.17257433
0.47944513 -9.882905 -0.17270936
0.53208613 -9.8962135 -0.1729883
0.58271736 -9.8726053 -0.17262663
0.63538575 -9.8840504 -0.17288259
0.68731159 -9.8825817 -0.17291753
0.73987806 -9.8893766 -0.17310189
0.79284507 -9.8997679 -0.17335412
0.84265512 -9.8713789 -0.17293195
0.89559376 -9.8802977 -0.17316803
0.95019388 -9.9050369 -0.1736865
1.001483 -9.893959 -0.17358191
1.0532992 -9.8884096 -0.17357901
1.1066293 -9.8964014 -0.17381871
1.1591413 -9.8961601 -0.17391877
1.2088373 -9.8724136 -0.17361039
1.26516 -9.9019823 -0.17424457
1.3168643 -9.8939552 -0.17422235
1.3692266 -9.8907671 -0.17429017
1.4217988 -9.8887434 -0.1743834
1.4764402 -9.9002047 -0.17471956
1.5283614 -9.8927279 -0.17472656
1.580322 -9.8854618 -0.17474209
1.6351979 -9.895772 -0.17507342
1.6892071 -9.8998108 -0.17529908
1.7424653 -9.8987942 -0.17544036
1.7941946 -9.8888674 -0.17542864
1.8482586 -9.8914661 -0.17564416
1.903105 -9.8974409 -0.17592493
1.9564542 -9.8949671 -0.17606077
2.0084743 -9.8855343 -0.1760778
2.0685208 -9.9145145 -0.17678463
2.1173749 -9.8891869 -0.17652844
2.170269 -9.8829679 -0.17661801
2.2287512 -9.9013214 -0.17715231
2.2850275 -9.9086771 -0.17749572
2.3389776 -9.9052763 -0.17765193
2.3972235 -9.9192457 -0.17812532
2.4462214 -9.8946171 -0.17791082
2.5047731 -9.9083023 -0.17839046
2.5613043 -9.9130096 -0.17871439
2.6146317 -9.9048119 -0.17881118
2.6674089 -9.8943453 -0.17887211
2.7266977 -9.9073944 -0.17936388
2.7817776 -9.9043617 -0.17957042
2.838479 -9.9065313 -0.17987698
2.8954585 -9.9089909 -0.18019466
2.9468353 -9.8919706 -0.1801635
3.0058086 -9.9000292 -0.18059468
3.0641391 -9.9051294 -0.18097815
3.1257429 -9.9198465 -0.18154384
3.1819365 -9.916585 -0.18178682
3.2333789 -9.8983049 -0.18175983
3.2929361 -9.90448 -0.18218759
3.3474767 -9.8950186 -0.18233374
3.4105563 -9.9100962 -0.18293838
3.4723475 -9.9203882 -0.18346176
3.5272918 -9.9105015 -0.18361823
3.5850737 -9.9081755 -0.18392071
3.6442392 -9.9090824 -0.1842895
3.7048881 -9.9133215 -0.18472688
3.7656658 -9.9171553 -0.1851635
3.8242412 -9.914547 -0.18548642
3.878628 -9.9007111 -0.1856053
3.9481149 -9.9246359 -0.18643911
3.9984639 -9.8998356 -0.18636429
4.0629449 -9.9096193 -0.1869467
4.1225924 -9.9068718 -0.18729988
4.1883917 -9.9181442 -0.18792537
4.2435398 -9.9036007 -0.18806857
4.3168864 -9.9307022 -0.18901022
4.3685203 -9.907156 -0.18899521
4.4360433 -9.919158 -0.18966502
4.4924798 -9.9057369 -0.18985595
4.5621214 -9.9207535 -0.19059937
4.6269979 -9.92449 -0.19113435
4.6888046 -9.9209747 -0.19153725
4.7561836 -9.9285278 -0.19216163
4.8238873 -9.9358892 -0.1927907
4.8773708 -9.9134874 -0.19284934
4.9478717 -9.9251385 -0.19357774
5.0109806 -9.9211807 -0.19401003
5.0722394 -9.9130344 -0.19436784
5.1443596 -9.9253731 -0.19513567
5.2178516 -9.9393291 -0.19594495
5.2706861 -9.913393 -0.19597547
5.341279 -9.9203987 -0.19666459
5.419908 -9.9412756 -0.19763881
5.4786553 -9.924922 -0.19788174
5.5514483 -9.9333982 -0.19862805
5.6125369 -9.9202728 -0.19895099
5.683547 -9.9240789 -0.1996219
5.7542591 -9.9265642 -0.2002757
5.8286438 -9.9345303 -0.20104991
5.9025564 -9.9407873 -0.20179975
5.9626665 -9.9231968 -0.20207419
6.0362964 -9.9275208 -0.20280363
6.1100392 -9.9311895 -0.20352988
6.1832666 -9.9332018 -0.20423238
6.2565503 -9.9345093 -0.20493056
6.3258872 -9.9288378 -0.20549457
6.4069462 -9.9407263 -0.20643269
6.4813747 -9.9414091 -0.20714936
6.5669885 -9.9582701 -0.20821489
6.6208091 -9.9263077 -0.20826919
6.7046924 -9.9388485 -0.20926663
6.7731042 -9.9276466 -0.20977522
6.8652029 -9.9502354 -0.21100983
6.9463582 -9.9558401 -0.21189773
7.0028567 -9.9255695 -0.21203163
7.0966682 -9.9474602 -0.21329078
7.1844149 -9.9596472 -0.21435641
7.25773 -9.9509592 -0.21498503
7.3285236 -9.9382124 -0.2155364
7.4122519 -9.9422588 -0.2164636
7.4923124 -9.9405107 -0.21727738
7.5769863 -9.9440079 -0.21821871
7.665822 -9.9519787 -0.2192722
7.7436743 -9.9448118 -0.22000536
7.8267941 -9.9436226 -0.22088338
7.9124498 -9.9447708 -0.22182693
8.0107965 -9.9607935 -0.22311765
8.0748549 -9.933403 -0.2234489
8.1676588 -9.9406815 -0.22457236
8.2618828 -9.9486122 -0.22572653
8.3309917 -9.92554 -0.22619048
8.4354773 -9.9437361 -0.2276094
8.5230761 -9.9409237 -0.22856426
8.6124897 -9.9393291 -0.22956213
8.6984301 -9.9328537 -0.23046222
8.8004417 -9.9437208 -0.2317812
8.8869553 -9.9360685 -0.23268519
8.9919271 -9.9480257 -0.23406549
9.0697746 -9.9290562 -0.23473424
9.17348 -9.9375048 -0.23606721
9.272541 -9.9397974 -0.23727272
9.3744287 -9.9440308 -0.23854318
9.4539967 -9.923727 -0.2392413
9.57479 -9.9456367 -0.24097584
9.660223 -9.9297037 -0.24181305
9.776392 -9.9443159 -0.24341318
9.8742685 -9.9391489 -0.24454994
9.9625492 -9.9234571 -0.24544503
10.081844 -9.9375792 -0.24709767
10.202651 -9.951786 -0.24877696
10.295928 -9.9380159 -0.24977808
10.389566 -9.9237566 -0.25078467
10.49995 -9.9244919 -0.25219029
10.621708 -9.9347057 -0.25386077
10.731817 -9.9327688 -0.25524485
10.843325 -9.9309835 -0.25665563
10.967346 -9.939393 -0.25835475
11.067122 -9.9246864 -0.25947642
11.194166 -9.9332733 -0.26123103
11.305419 -9.92659 -0.26260969
11.432264 -9.932354 -0.2643435
