# .PCD v0.7 - Point Cloud Data file format
VERSION 0.7
FIELDS x y z
SIZE 4 4 4
TYPE F F F
COUNT 1 1 1
WIDTH 142
HEIGHT 1
VIEWPOINT 0 0 0 1 0 0 0
POINTS 142
DATA ascii
5.6283283 -1.6309205 1.3528557
5.6319504 -1.6533015 1.3551052
5.6261449 -1.6729507 1.3551052
5.6224322 -1.6921602 1.3555551
5.6273761 -1.7161664 1.3582544
5.6235166 -1.7353928 1.3587044
5.6214509 -1.7551931 1.3596041
5.6190066 -1.7759796 1.360504
5.6273069 -1.8013153 1.3641032
5.6246929 -1.8221482 1.365003
5.636816 -1.8478416 1.3695021
5.6210828 -1.8644388 1.3672525
5.6219306 -1.8865286 1.3690522
5.6226926 -1.9086468 1.3708518
5.6307406 -1.9333248 1.3744509
5.6350031 -1.9568036 1.3771503
5.6207838 -1.9738789 1.3753507
5.6230416 -1.9967474 1.3776002
5.6307101 -2.0216317 1.3811995
5.6327777 -2.0445983 1.383449
5.6292658 -2.0655906 1.3843488
5.6238484 -2.0859058 1.3847986
5.6238317 -2.1082602 1.3865983
5.6164384 -2.1278784 1.3865983
5.6198959 -2.1516507 1.3892977
5.6287079 -2.1775827 1.3933468
5.6138129 -2.1943798 1.3915472
5.6097436 -2.2153935 1.392447
5.6186576 -2.2404804 1.3964962
5.614418 -2.2615356 1.397396
5.6205306 -2.2879763 1.4009951
5.6089053 -2.3060999 1.4000953
5.608427 -2.3276746 1.4018949
5.6038618 -2.3487444 1.4027947
5.6099858 -2.3743675 1.406394
5.6195836 -2.4015937 1.410893
5.6075873 -2.4196508 1.4099932
5.6026802 -2.4407668 1.410893
5.6119647 -2.4681544 1.415392
5.6104393 -2.4908919 1.4171916
5.6128192 -2.5142629 1.419891
5.6040087 -2.5338402 1.419891
5.5982294 -2.5559814 1.4207909
5.6069722 -2.583663 1.4252899
5.6120553 -2.6097927 1.428889
5.613956 -2.6333542 1.4315885
5.6016693 -2.6502895 1.4306886
5.6011767 -2.6740246 1.4329382
5.6001158 -2.698766 1.4351877
5.5994244 -2.7225583 1.4374373
5.5999045 -2.7482142 1.4401367
5.5942531 -2.7684979 1.4410365
5.5880427 -2.7897491 1.4419363
5.5869732 -2.8136208 1.4441857
5.5880375 -2.8374262 1.4468851
5.5919752 -2.8640218 1.4504844
5.5819435 -2.8835239 1.4504844
5.5822139 -2.9083934 1.4531839
5.5922155 -2.9397149 1.4585826
5.5922503 -2.9646943 1.461282
5.5956159 -2.9915469 1.4648812
5.5817089 -3.0092115 1.4639815
5.5785484 -3.0314262 1.4657811
5.5918584 -3.0639906 1.4720796
5.5845408 -3.085376 1.4729795
5.592463 -3.1152823 1.4779284
5.5844054 -3.1376681 1.4788282
5.578506 -3.1600237 1.480178
5.5781507 -3.1843023 1.4828774
5.5788245 -3.2105579 1.4860266
5.581068 -3.2378354 1.4896258
5.5730963 -3.2592645 1.4905257
5.5689731 -3.2816856 1.4923253
5.5725636 -3.3100615 1.4963745
5.5749331 -3.336529 1.4999737
5.5737586 -3.3649602 1.5031229
5.5708947 -3.3884888 1.5053725
5.5690012 -3.4140251 1.5080719
5.57197 -3.4426625 1.512121
5.573153 -3.4703317 1.5157202
5.5735998 -3.4990242 1.5193194
5.5662928 -3.5215845 1.5206691
5.5644445 -3.5463076 1.5233686
5.5618696 -3.5720277 1.526068
5.5657272 -3.6020083 1.5305669
5.5629139 -3.6278019 1.5332664
5.5534739 -3.6493378 1.5341661
5.5455761 -3.6719282 1.5355159
5.5521774 -3.7042422 1.5409148
5.5570035 -3.7355597 1.5458636
5.5584512 -3.76477 1.5499128
5.5501056 -3.7874444 1.5512625
5.5496974 -3.8156271 1.5548617
5.5603738 -3.8516212 1.5616102
5.5548854 -3.8765831 1.5638597
5.5636387 -3.9116414 1.5701584
5.5506363 -3.9300694 1.5701584
5.5432301 -3.9539475 1.5719579
5.544332 -3.9825397 1.5760071
5.5414481 -4.0098658 1.5791564
5.5456085 -4.0439272 1.5845551
5.5063305 -4.0448017 1.5773568
5.470953 -4.0468144 1.5710582
5.4302282 -4.046093 1.5634098
5.3841949 -4.0425673 1.5544118
5.3420739 -4.0401788 1.5463136
5.2938347 -4.0328212 1.5364157
5.2549882 -4.0322943 1.5292172
5.2285461 -4.0410795 1.5256181
5.1898046 -4.0401525 1.5184196
5.1449995 -4.0341949 1.5094216
5.0957122 -4.0243506 1.4990739
5.0526562 -4.0190644 1.4905257
5.0233874 -4.0244927 1.4860266
5.0153756 -4.0468974 1.4878262
5.0125155 -4.0721083 1.4909756
5.0201025 -4.1059809 1.4972742
5.0072436 -4.1247182 1.4977242
4.9688182 -4.1222634 1.4905257
4.9454265 -4.1320853 1.4878262
4.9086061 -4.1305022 1.4810777
4.8718581 -4.1287131 1.4743292
4.8307352 -4.1229219 1.466231
4.8015356 -4.1270571 1.4617319
4.75986 -4.121666 1.4536338
4.7278185 -4.1228862 1.4482349
4.6892252 -4.1166854 1.4405866
4.6587667 -4.1188302 1.4356377
4.6239843 -4.1169252 1.4293389
4.5950761 -4.1200314 1.42484
4.5589714 -4.1164565 1.4180914
4.5186219 -4.108747 1.4099932
4.4776664 -4.1015878 1.4018949
4.4518628 -4.1066222 1.3982958
4.423223 -4.1088743 1.3937967
4.3988914 -4.1149702 1.3906474
4.3561311 -4.1035752 1.3816494
4.3283591 -4.104589 1.3771503
4.3231812 -4.1269932 1.3798498
4.3101544 -4.1434093 1.3802997
4.2886643 -4.1516523 1.3780502
4.2713547 -4.163877 1.3771503
