# .PCD v0.7 - Point Cloud Data file format
VERSION 0.7
FIELDS x y z
SIZE 4 4 4
TYPE F F F
COUNT 1 1 1
WIDTH 70
HEIGHT 1
VIEWPOINT 0 0 0 1 0 0 0
POINTS 70
DATA ascii
5.8528152 -3.0454845 1.0449823
5.8421488 -3.065896 1.0449823
5.773262 -3.0567849 1.0346577
5.7172503 -3.0527275 1.0265231
5.679265 -3.0566905 1.0215172
5.6199484 -3.050113 1.0127568
5.5780754 -3.0526416 1.0071251
5.5725741 -3.0749574 1.0080638
5.560081 -3.0934305 1.007751
5.5630307 -3.1205506 1.0102539
5.5538244 -3.1409233 1.0105668
5.5514069 -3.1651824 1.0121311
5.5540257 -3.1924167 1.0146341
5.5684857 -3.2266395 1.019327
5.5662847 -3.2500677 1.0208914
5.5600128 -3.2724841 1.0218301
5.5593243 -3.2969496 1.0237073
5.5596509 -3.3234301 1.0258973
5.5677342 -3.3560219 1.0296518
5.5627384 -3.379539 1.0309032
5.5509076 -3.3989358 1.0309032
5.5507765 -3.4255533 1.0330933
5.5522051 -3.4532549 1.0355963
5.5501595 -3.4789093 1.0374736
5.5647035 -3.5151412 1.0424794
5.5424013 -3.5281794 1.0406022
5.5383644 -3.5528374 1.0421665
5.5425186 -3.5828726 1.0452952
5.5448751 -3.611901 1.0481111
5.545445 -3.6399057 1.050614
5.545886 -3.6679587 1.0531169
5.5461988 -3.6960588 1.0556198
5.5414634 -3.7209022 1.0571842
5.5529833 -3.7568259 1.0618773
5.5545259 -3.7861998 1.0646931
5.5396476 -3.8044479 1.0643803
5.5393291 -3.8327532 1.0668832
5.5437422 -3.8644919 1.0703248
5.5373635 -3.8873944 1.0715762
5.5398884 -3.9181066 1.0747049
5.5365186 -3.9433315 1.0765822
5.5291395 -3.9672399 1.0778337
5.5344696 -4.0004025 1.081588
5.5364408 -4.0313244 1.0847167
5.5175567 -4.0471206 1.0837781
5.4636769 -4.0370088 1.0759563
5.4289522 -4.0407228 1.071889
5.3958478 -4.0454297 1.0681347
5.3573422 -4.0473185 1.0634416
5.3227458 -4.0504432 1.0593743
5.280355 -4.0473676 1.0537428
5.22085 -4.0307665 1.0446695
5.1864767 -4.0332022 1.0406022
5.1521502 -4.0354471 1.0365349
5.1225233 -4.041172 1.0334063
5.0774541 -4.0344505 1.0271488
5.032495 -4.0274634 1.0208914
5.0107155 -4.0388074 1.019327
5.0141668 -4.0690932 1.0227686
5.0205321 -4.1019468 1.0268359
5.0138097 -4.1257229 1.0284003
5.0054617 -4.1482406 1.0296518
5.0030837 -4.1758142 1.0321548
5.0099931 -4.2412724 1.0396636
5.0101895 -4.2715511 1.0427923
4.9997454 -4.2928734 1.0437309
5.0011659 -4.3245125 1.0471724
5.000937 -4.3549166 1.0503011
5.0020428 -4.3866735 1.0537428
5.0548072 -4.4642582 1.0681347
